1976.82000000,1975.97000000,1981.00000000,1987.88000000,2000.44000000,2006.01000000,2014.24000000,2022.91000000,2025.37000000,2041.18000000,2054.18000000,2049.08000000,2032.46000000,2008.28000000,1990.02000000,1990.75000000,1994.69000000,1987.15000000,1998.88000000,2006.77000000,2014.06000000,2020.43000000,2037.65000000,2055.67000000,2072.79000000,2099.51000000,2116.96000000,2128.20000000,2133.86000000,2135.01000000,2142.18000000,2151.76000000,2143.52000000,2139.16000000,2156.74000000,2172.05000000,2191.36000000,2206.68000000,2228.19000000,2239.97000000,2264.67000000,2302.58000000,2324.75000000,2349.80000000,2365.85000000,2381.68000000,2410.80000000,2434.92000000,2455.48000000,2469.70000000,2460.27000000,2454.36000000,2453.31000000,2452.15000000,2456.16000000,2461.98000000,2464.43000000,2475.97000000,2487.44000000,2502.45000000,2510.79000000,2523.05000000,2537.26000000,2557.97000000,2568.18000000,2571.58000000,2572.26000000,2584.94000000,2594.56000000,2596.10000000,2597.80000000,2597.93000000,2595.84000000,2599.23000000,2612.08000000,2615.52000000,2615.63000000,2620.83000000,2631.64000000,2640.79000000,2643.64000000,2640.73000000,2645.98000000,2651.41000000,2656.04000000,2657.52000000,2659.98000000,2676.91000000,2698.26000000,2721.06000000,2742.21000000,2763.24000000,2781.90000000,2799.80000000,2811.20000000,2805.73000000,2801.23000000,2791.77000000,2773.34000000,2753.83000000,2736.40000000,2723.36000000,2718.64000000,2711.26000000,2698.69000000,2694.27000000,2684.06000000,2671.77000000,2660.27000000,2651.69000000,2654.37000000,2655.61000000,2656.13000000,2651.80000000,2654.90000000,2658.41000000,2672.48000000,2689.81000000,2697.20000000,2690.76000000,2679.52000000,2669.04000000,2670.06000000,2677.78000000,2683.59000000,2695.46000000,2712.97000000,2726.84000000,2740.43000000,2747.43000000,2755.24000000,2764.65000000,2776.48000000,2794.43000000,2812.48000000,2833.68000000,2850.93000000,2869.21000000,2888.50000000,2900.01000000,2914.89000000,2922.32000000,2919.93000000,2912.83000000,2896.07000000,2861.98000000,2851.46000000,2844.45000000,2822.09000000,2820.85000000,2806.28000000,2781.91000000,2779.85000000,2757.31000000,2746.73000000,2715.61000000,2709.57000000,2724.53000000,2724.73000000,2700.64000000,2677.44000000,2664.64000000,2650.22000000,2625.53000000,2598.49000000,2579.78000000,2553.94000000,2529.93000000,2500.55000000,2479.60000000,2463.15000000,2448.95000000,2421.70000000,2398.43000000,2383.35000000,2385.65000000,2365.08000000,2330.90000000,2293.18000000,2273.87000000,2264.20000000,2252.77000000,2240.24000000,2230.10000000,2217.05000000,2197.63000000,2173.47000000,2144.75000000,2121.32000000,2100.09000000,2088.50000000,2074.93000000,2059.24000000,2047.11000000,2036.87000000,2024.83000000,2023.72000000,2017.85000000,2015.71000000,2014.37000000,2017.00000000,2017.44000000,2014.90000000,2010.14000000,2001.53000000,1997.73000000,1998.81000000,1998.23000000,2001.97000000,2001.02000000,2006.54000000,2008.91000000,2013.03000000
1961.24000000,1958.05000000,1964.93000000,1976.35000000,1990.25000000,1992.13000000,2003.17000000,2008.54000000,2019.88000000,2038.14000000,2043.32000000,2032.88000000,2013.68000000,1989.79000000,1976.55000000,1980.00000000,1981.85000000,1971.28000000,1981.17000000,1992.01000000,1999.32000000,2011.64000000,2026.43000000,2046.00000000,2063.43000000,2079.18000000,2089.70000000,2102.23000000,2108.80000000,2109.42000000,2119.98000000,2127.00000000,2115.33000000,2118.61000000,2143.20000000,2163.19000000,2173.84000000,2186.08000000,2204.12000000,2216.55000000,2247.31000000,2270.99000000,2297.93000000,2319.03000000,2345.98000000,2362.08000000,2381.95000000,2424.53000000,2442.78000000,2441.86000000,2437.65000000,2431.79000000,2431.69000000,2431.97000000,2433.31000000,2438.13000000,2442.94000000,2451.46000000,2470.49000000,2489.68000000,2499.40000000,2507.98000000,2521.54000000,2536.50000000,2547.02000000,2553.15000000,2563.47000000,2580.32000000,2594.64000000,2602.19000000,2604.05000000,2603.11000000,2599.25000000,2601.60000000,2617.51000000,2620.76000000,2617.98000000,2620.45000000,2634.24000000,2645.60000000,2650.99000000,2647.47000000,2649.05000000,2655.31000000,2659.47000000,2660.47000000,2666.31000000,2678.15000000,2697.96000000,2723.80000000,2745.37000000,2769.44000000,2785.16000000,2801.34000000,2812.55000000,2817.95000000,2812.06000000,2800.60000000,2786.14000000,2767.35000000,2747.90000000,2734.51000000,2725.17000000,2719.02000000,2710.33000000,2699.96000000,2683.04000000,2667.80000000,2659.71000000,2658.57000000,2661.54000000,2658.90000000,2660.40000000,2654.80000000,2658.33000000,2670.52000000,2683.14000000,2681.29000000,2673.93000000,2669.91000000,2666.49000000,2660.97000000,2659.41000000,2663.94000000,2670.67000000,2681.57000000,2694.93000000,2712.78000000,2724.84000000,2728.46000000,2736.65000000,2754.85000000,2774.47000000,2793.11000000,2812.33000000,2826.98000000,2842.99000000,2858.65000000,2871.53000000,2883.63000000,2903.20000000,2921.57000000,2920.87000000,2913.23000000,2880.27000000,2847.53000000,2829.80000000,2820.55000000,2794.34000000,2798.08000000,2791.41000000,2769.76000000,2757.34000000,2748.07000000,2721.06000000,2691.78000000,2679.53000000,2704.79000000,2711.30000000,2691.74000000,2668.73000000,2643.58000000,2629.99000000,2605.71000000,2577.65000000,2568.86000000,2563.78000000,2540.59000000,2515.81000000,2492.64000000,2474.28000000,2452.31000000,2422.82000000,2397.65000000,2360.64000000,2354.92000000,2345.48000000,2324.31000000,2294.69000000,2272.63000000,2252.22000000,2226.03000000,2203.83000000,2196.69000000,2190.57000000,2173.69000000,2158.28000000,2137.26000000,2105.76000000,2090.76000000,2081.01000000,2064.72000000,2048.72000000,2037.19000000,2026.24000000,2012.57000000,2003.41000000,1998.72000000,1996.79000000,1996.66000000,1996.41000000,1994.87000000,1993.60000000,1992.13000000,1982.84000000,1977.58000000,1980.13000000,1977.53000000,1979.05000000,1976.57000000,1981.26000000,1984.22000000,1992.82000000
1944.61000000,1944.70000000,1954.02000000,1966.68000000,1973.85000000,1981.29000000,1993.55000000,2002.30000000,2020.07000000,2035.07000000,2030.15000000,2018.98000000,1997.20000000,1974.22000000,1960.49000000,1969.43000000,1971.33000000,1956.67000000,1961.88000000,1974.66000000,1985.35000000,1999.42000000,2018.76000000,2036.95000000,2050.43000000,2062.22000000,2062.94000000,2072.29000000,2077.89000000,2087.58000000,2094.72000000,2103.65000000,2093.47000000,2103.28000000,2119.27000000,2140.61000000,2155.63000000,2166.65000000,2174.58000000,2195.64000000,2226.24000000,2249.85000000,2273.27000000,2301.00000000,2330.16000000,2355.82000000,2374.77000000,2411.55000000,2430.89000000,2419.40000000,2414.51000000,2411.38000000,2409.36000000,2409.66000000,2413.09000000,2419.79000000,2426.84000000,2434.20000000,2453.56000000,2473.49000000,2485.36000000,2493.26000000,2503.26000000,2510.62000000,2516.05000000,2528.16000000,2539.86000000,2551.78000000,2571.39000000,2595.67000000,2602.77000000,2605.89000000,2601.96000000,2603.55000000,2614.52000000,2623.33000000,2622.00000000,2620.01000000,2632.47000000,2647.49000000,2654.29000000,2652.73000000,2652.15000000,2656.86000000,2661.72000000,2665.78000000,2670.15000000,2683.11000000,2699.17000000,2718.82000000,2742.38000000,2763.13000000,2783.68000000,2799.26000000,2809.94000000,2817.32000000,2814.99000000,2805.61000000,2795.30000000,2772.95000000,2752.23000000,2738.42000000,2728.47000000,2719.47000000,2707.25000000,2695.24000000,2688.61000000,2675.15000000,2668.42000000,2672.27000000,2669.47000000,2663.17000000,2661.07000000,2658.61000000,2666.82000000,2681.78000000,2676.25000000,2664.50000000,2657.28000000,2654.09000000,2655.55000000,2653.95000000,2652.87000000,2654.07000000,2659.16000000,2670.71000000,2682.07000000,2694.56000000,2711.01000000,2715.94000000,2732.15000000,2758.23000000,2773.93000000,2787.23000000,2799.67000000,2811.95000000,2827.95000000,2839.20000000,2854.91000000,2872.97000000,2891.78000000,2905.41000000,2916.99000000,2896.48000000,2860.31000000,2834.60000000,2811.15000000,2798.21000000,2766.26000000,2760.26000000,2752.19000000,2749.41000000,2726.01000000,2722.04000000,2699.18000000,2680.63000000,2660.88000000,2690.34000000,2687.75000000,2665.41000000,2648.76000000,2635.95000000,2611.47000000,2592.68000000,2567.53000000,2542.14000000,2549.60000000,2522.40000000,2502.82000000,2484.85000000,2472.14000000,2452.45000000,2416.64000000,2382.55000000,2350.65000000,2328.14000000,2319.10000000,2308.84000000,2290.66000000,2275.81000000,2257.97000000,2234.05000000,2201.79000000,2184.19000000,2161.38000000,2143.74000000,2136.38000000,2117.86000000,2097.61000000,2081.66000000,2067.07000000,2052.09000000,2038.63000000,2024.93000000,2015.21000000,2005.31000000,1994.36000000,1985.92000000,1981.85000000,1979.54000000,1977.74000000,1976.56000000,1974.93000000,1969.89000000,1961.98000000,1954.49000000,1956.57000000,1953.32000000,1950.80000000,1950.25000000,1952.00000000,1958.06000000,1964.90000000
1926.59000000,1934.25000000,1945.09000000,1952.92000000,1957.28000000,1969.19000000,1989.63000000,2005.48000000,2022.86000000,2023.12000000,2016.25000000,2001.34000000,1976.43000000,1957.13000000,1947.98000000,1956.38000000,1962.64000000,1944.99000000,1947.48000000,1964.47000000,1980.13000000,1991.04000000,2007.18000000,2027.26000000,2039.22000000,2037.85000000,2039.70000000,2046.51000000,2051.78000000,2061.08000000,2072.06000000,2077.01000000,2073.44000000,2083.23000000,2096.39000000,2117.08000000,2132.87000000,2140.34000000,2158.97000000,2183.56000000,2212.10000000,2233.13000000,2259.40000000,2288.40000000,2318.42000000,2344.23000000,2368.68000000,2398.24000000,2406.19000000,2402.53000000,2399.93000000,2395.81000000,2394.16000000,2394.25000000,2396.84000000,2403.32000000,2409.40000000,2420.01000000,2436.86000000,2453.97000000,2464.32000000,2467.39000000,2481.06000000,2484.03000000,2493.98000000,2502.73000000,2516.13000000,2533.76000000,2551.84000000,2585.58000000,2595.59000000,2603.64000000,2605.68000000,2607.16000000,2609.18000000,2620.19000000,2626.77000000,2624.13000000,2630.97000000,2648.28000000,2656.60000000,2656.30000000,2652.67000000,2654.30000000,2660.45000000,2665.06000000,2670.86000000,2681.26000000,2693.01000000,2710.32000000,2730.97000000,2754.56000000,2777.59000000,2796.70000000,2811.48000000,2817.82000000,2813.49000000,2808.20000000,2796.49000000,2775.04000000,2758.70000000,2745.04000000,2726.19000000,2711.08000000,2704.69000000,2699.99000000,2688.48000000,2681.85000000,2688.96000000,2688.59000000,2678.70000000,2671.18000000,2668.29000000,2668.22000000,2682.11000000,2680.77000000,2665.60000000,2652.25000000,2648.51000000,2645.97000000,2647.80000000,2645.77000000,2643.90000000,2643.92000000,2650.42000000,2659.58000000,2672.72000000,2684.58000000,2693.47000000,2701.79000000,2724.62000000,2745.87000000,2760.13000000,2772.11000000,2782.90000000,2795.68000000,2810.03000000,2824.20000000,2846.63000000,2861.16000000,2871.31000000,2881.68000000,2898.55000000,2897.33000000,2865.27000000,2830.84000000,2800.34000000,2775.19000000,2749.23000000,2736.94000000,2719.75000000,2707.14000000,2711.36000000,2687.66000000,2662.66000000,2656.13000000,2636.89000000,2652.66000000,2659.85000000,2640.97000000,2616.65000000,2608.34000000,2601.40000000,2576.30000000,2543.68000000,2515.96000000,2522.18000000,2503.47000000,2480.07000000,2457.57000000,2431.67000000,2407.30000000,2387.96000000,2368.90000000,2342.11000000,2316.92000000,2291.55000000,2278.61000000,2268.30000000,2248.49000000,2231.69000000,2219.66000000,2203.06000000,2180.14000000,2155.32000000,2133.20000000,2117.01000000,2104.73000000,2089.68000000,2072.67000000,2056.44000000,2043.61000000,2028.32000000,2016.66000000,2005.74000000,1994.60000000,1985.33000000,1979.16000000,1970.34000000,1962.43000000,1958.66000000,1954.83000000,1950.28000000,1946.10000000,1940.97000000,1936.47000000,1936.86000000,1937.29000000,1934.18000000,1933.39000000,1933.50000000,1936.14000000,1939.07000000
1915.20000000,1923.65000000,1932.84000000,1940.59000000,1947.83000000,1965.92000000,1988.21000000,2010.40000000,2016.95000000,2009.18000000,1997.83000000,1979.49000000,1957.67000000,1941.20000000,1935.04000000,1945.60000000,1948.24000000,1931.93000000,1943.39000000,1960.26000000,1974.40000000,1990.27000000,2009.34000000,2017.59000000,2014.64000000,2009.61000000,2016.22000000,2025.04000000,2033.47000000,2040.13000000,2046.97000000,2050.55000000,2058.15000000,2072.39000000,2089.67000000,2111.02000000,2131.22000000,2139.76000000,2168.55000000,2196.75000000,2219.25000000,2239.59000000,2265.22000000,2291.65000000,2323.94000000,2343.93000000,2369.96000000,2391.66000000,2387.56000000,2388.28000000,2386.26000000,2380.15000000,2378.31000000,2381.31000000,2385.65000000,2388.16000000,2395.47000000,2405.03000000,2416.02000000,2428.57000000,2441.48000000,2448.96000000,2455.24000000,2459.73000000,2472.00000000,2482.95000000,2497.86000000,2520.14000000,2542.16000000,2575.13000000,2598.93000000,2601.53000000,2603.41000000,2605.32000000,2610.45000000,2616.12000000,2627.51000000,2629.39000000,2635.68000000,2649.89000000,2659.83000000,2660.25000000,2656.04000000,2656.05000000,2661.32000000,2667.46000000,2670.92000000,2681.97000000,2689.98000000,2707.84000000,2727.43000000,2747.63000000,2771.03000000,2797.28000000,2815.07000000,2820.86000000,2817.04000000,2809.76000000,2786.69000000,2769.56000000,2755.10000000,2739.78000000,2724.42000000,2711.38000000,2702.66000000,2698.51000000,2696.96000000,2697.84000000,2703.70000000,2700.04000000,2694.32000000,2690.93000000,2687.94000000,2688.23000000,2691.60000000,2673.47000000,2655.26000000,2644.62000000,2640.40000000,2639.69000000,2637.65000000,2635.99000000,2631.87000000,2633.64000000,2641.16000000,2651.40000000,2660.36000000,2671.99000000,2678.81000000,2690.17000000,2710.07000000,2727.04000000,2736.97000000,2749.17000000,2763.02000000,2775.73000000,2789.76000000,2811.98000000,2828.52000000,2840.02000000,2844.58000000,2861.90000000,2878.13000000,2885.72000000,2854.94000000,2826.65000000,2796.14000000,2770.95000000,2750.76000000,2725.63000000,2704.42000000,2682.07000000,2678.80000000,2678.66000000,2653.19000000,2624.06000000,2609.14000000,2615.16000000,2628.24000000,2611.68000000,2586.87000000,2572.80000000,2561.69000000,2547.56000000,2522.33000000,2496.61000000,2492.48000000,2489.08000000,2464.07000000,2444.85000000,2419.98000000,2397.77000000,2379.19000000,2361.85000000,2338.79000000,2317.26000000,2293.94000000,2255.76000000,2240.10000000,2214.61000000,2191.88000000,2189.53000000,2181.77000000,2166.29000000,2145.53000000,2124.77000000,2106.46000000,2095.84000000,2084.78000000,2067.70000000,2053.04000000,2040.52000000,2025.13000000,2011.75000000,1999.79000000,1985.64000000,1977.17000000,1970.65000000,1960.33000000,1951.94000000,1942.41000000,1934.59000000,1931.09000000,1926.62000000,1920.91000000,1918.02000000,1917.64000000,1916.59000000,1913.03000000,1912.54000000,1914.74000000,1914.85000000,1914.50000000
1907.76000000,1919.10000000,1927.10000000,1930.81000000,1943.56000000,1965.62000000,1990.51000000,2010.59000000,2005.20000000,1993.37000000,1975.14000000,1962.92000000,1942.82000000,1928.35000000,1918.12000000,1928.66000000,1929.51000000,1920.64000000,1937.52000000,1959.09000000,1978.20000000,1990.43000000,1990.29000000,1994.91000000,1991.49000000,1985.32000000,1994.73000000,2004.74000000,2016.36000000,2022.59000000,2027.10000000,2037.72000000,2056.39000000,2072.78000000,2090.00000000,2112.87000000,2125.07000000,2143.09000000,2170.47000000,2203.76000000,2229.14000000,2242.93000000,2268.96000000,2294.64000000,2331.60000000,2351.42000000,2371.92000000,2377.51000000,2373.36000000,2375.31000000,2373.67000000,2367.74000000,2365.70000000,2369.40000000,2373.67000000,2374.38000000,2380.16000000,2387.79000000,2394.94000000,2407.26000000,2418.25000000,2427.88000000,2433.74000000,2442.74000000,2451.94000000,2467.23000000,2480.66000000,2503.28000000,2528.40000000,2556.84000000,2583.09000000,2601.82000000,2605.25000000,2605.29000000,2607.68000000,2611.16000000,2627.43000000,2636.00000000,2641.87000000,2652.25000000,2663.59000000,2662.47000000,2658.28000000,2657.56000000,2661.49000000,2670.78000000,2673.20000000,2682.17000000,2689.24000000,2704.18000000,2725.67000000,2746.81000000,2773.45000000,2798.31000000,2815.44000000,2827.54000000,2822.80000000,2810.28000000,2782.34000000,2762.26000000,2750.68000000,2738.08000000,2726.29000000,2714.03000000,2707.29000000,2707.27000000,2708.70000000,2711.87000000,2715.85000000,2714.96000000,2713.88000000,2709.95000000,2707.41000000,2704.18000000,2691.57000000,2670.14000000,2652.43000000,2643.28000000,2638.46000000,2634.48000000,2630.29000000,2627.60000000,2624.74000000,2625.39000000,2630.44000000,2637.55000000,2649.13000000,2657.18000000,2662.50000000,2674.93000000,2690.84000000,2706.36000000,2719.09000000,2730.64000000,2741.79000000,2757.57000000,2776.22000000,2793.59000000,2809.95000000,2818.99000000,2821.93000000,2842.06000000,2858.57000000,2866.85000000,2849.08000000,2824.60000000,2790.10000000,2765.97000000,2746.14000000,2723.19000000,2705.07000000,2684.57000000,2659.38000000,2658.02000000,2655.22000000,2626.74000000,2595.62000000,2583.15000000,2602.86000000,2600.96000000,2574.49000000,2549.44000000,2526.13000000,2508.82000000,2485.74000000,2467.26000000,2452.34000000,2456.90000000,2443.14000000,2429.34000000,2402.10000000,2380.77000000,2358.71000000,2344.03000000,2319.42000000,2298.32000000,2277.28000000,2248.97000000,2232.05000000,2203.90000000,2178.63000000,2168.24000000,2155.03000000,2143.39000000,2129.31000000,2110.09000000,2095.69000000,2087.39000000,2077.23000000,2062.34000000,2046.96000000,2034.05000000,2019.78000000,2005.58000000,1994.95000000,1979.20000000,1971.05000000,1958.42000000,1948.31000000,1941.99000000,1935.22000000,1925.68000000,1913.21000000,1909.09000000,1902.23000000,1899.53000000,1895.21000000,1892.40000000,1891.68000000,1892.47000000,1892.86000000,1891.20000000,1889.22000000
1901.85000000,1909.93000000,1917.08000000,1924.14000000,1943.35000000,1970.75000000,1993.53000000,1999.88000000,1988.44000000,1973.56000000,1955.51000000,1944.02000000,1929.85000000,1912.93000000,1901.20000000,1905.62000000,1909.15000000,1907.71000000,1931.14000000,1954.98000000,1970.65000000,1970.47000000,1961.64000000,1967.13000000,1967.61000000,1968.91000000,1979.38000000,1990.86000000,1996.61000000,2010.99000000,2026.25000000,2040.22000000,2055.96000000,2070.50000000,2090.31000000,2105.68000000,2120.53000000,2149.14000000,2179.13000000,2206.44000000,2230.00000000,2253.99000000,2272.55000000,2300.06000000,2332.57000000,2348.75000000,2366.13000000,2364.14000000,2364.51000000,2364.85000000,2363.60000000,2357.39000000,2357.73000000,2360.38000000,2361.36000000,2359.80000000,2364.21000000,2374.16000000,2379.65000000,2389.41000000,2398.00000000,2408.32000000,2415.94000000,2425.81000000,2439.63000000,2453.77000000,2470.95000000,2493.36000000,2521.07000000,2534.87000000,2546.23000000,2579.23000000,2608.80000000,2614.13000000,2615.05000000,2615.51000000,2625.77000000,2640.09000000,2644.31000000,2647.74000000,2657.76000000,2656.11000000,2653.87000000,2655.56000000,2660.04000000,2669.56000000,2674.21000000,2678.77000000,2688.55000000,2702.73000000,2721.45000000,2744.25000000,2773.79000000,2796.59000000,2816.26000000,2830.53000000,2820.59000000,2804.51000000,2780.80000000,2757.97000000,2742.28000000,2732.32000000,2724.96000000,2719.94000000,2718.16000000,2720.76000000,2722.63000000,2726.40000000,2732.65000000,2734.24000000,2726.82000000,2722.47000000,2719.24000000,2702.87000000,2687.72000000,2669.88000000,2651.77000000,2643.02000000,2638.60000000,2630.95000000,2626.77000000,2621.54000000,2617.22000000,2618.14000000,2623.49000000,2627.31000000,2636.13000000,2644.13000000,2648.38000000,2656.75000000,2673.26000000,2686.27000000,2698.41000000,2711.14000000,2726.08000000,2742.19000000,2756.03000000,2769.86000000,2787.30000000,2795.73000000,2806.10000000,2824.55000000,2835.32000000,2850.20000000,2843.88000000,2816.55000000,2788.39000000,2768.05000000,2751.47000000,2735.12000000,2716.00000000,2700.98000000,2670.93000000,2634.07000000,2639.62000000,2631.52000000,2595.83000000,2558.91000000,2572.57000000,2580.77000000,2574.94000000,2547.13000000,2517.09000000,2489.78000000,2466.80000000,2441.88000000,2415.44000000,2403.71000000,2399.15000000,2376.88000000,2378.68000000,2353.67000000,2335.93000000,2315.70000000,2298.48000000,2277.06000000,2258.20000000,2240.36000000,2223.95000000,2199.41000000,2178.55000000,2154.77000000,2140.94000000,2127.03000000,2112.89000000,2098.14000000,2083.98000000,2074.78000000,2065.81000000,2054.66000000,2038.14000000,2022.11000000,2006.37000000,1993.65000000,1990.18000000,1981.66000000,1966.01000000,1952.63000000,1942.77000000,1933.77000000,1925.78000000,1918.55000000,1905.47000000,1896.23000000,1886.94000000,1879.85000000,1875.36000000,1871.29000000,1870.90000000,1870.82000000,1870.60000000,1870.65000000,1867.62000000
1895.88000000,1902.67000000,1907.71000000,1921.81000000,1943.65000000,1968.17000000,1982.21000000,1975.97000000,1965.30000000,1955.35000000,1937.11000000,1921.53000000,1908.08000000,1896.22000000,1885.70000000,1886.70000000,1887.02000000,1896.26000000,1922.15000000,1937.78000000,1944.78000000,1940.28000000,1938.31000000,1941.56000000,1946.04000000,1956.22000000,1965.98000000,1976.67000000,1995.37000000,2018.35000000,2035.49000000,2050.10000000,2063.43000000,2079.02000000,2095.98000000,2117.03000000,2131.52000000,2152.48000000,2183.73000000,2209.10000000,2236.61000000,2261.11000000,2285.90000000,2307.91000000,2334.76000000,2348.36000000,2349.24000000,2347.80000000,2350.41000000,2351.88000000,2351.18000000,2349.29000000,2353.18000000,2351.60000000,2347.64000000,2347.41000000,2350.19000000,2359.05000000,2364.02000000,2373.92000000,2380.09000000,2393.45000000,2406.51000000,2418.06000000,2427.93000000,2444.23000000,2467.27000000,2488.03000000,2500.21000000,2505.73000000,2529.58000000,2571.91000000,2589.17000000,2606.51000000,2618.52000000,2620.78000000,2623.53000000,2628.05000000,2629.22000000,2636.70000000,2643.68000000,2645.14000000,2650.64000000,2655.48000000,2662.12000000,2669.36000000,2675.11000000,2680.66000000,2687.53000000,2700.51000000,2719.36000000,2748.28000000,2775.46000000,2797.35000000,2815.53000000,2827.04000000,2815.50000000,2795.90000000,2777.34000000,2759.45000000,2746.58000000,2735.75000000,2733.16000000,2734.05000000,2741.72000000,2741.99000000,2743.18000000,2744.35000000,2750.17000000,2749.23000000,2737.64000000,2731.01000000,2718.66000000,2703.75000000,2687.94000000,2670.45000000,2655.64000000,2638.93000000,2626.07000000,2618.53000000,2616.08000000,2613.56000000,2609.79000000,2609.47000000,2614.71000000,2619.88000000,2625.43000000,2630.08000000,2633.14000000,2643.47000000,2655.89000000,2670.64000000,2682.63000000,2693.05000000,2710.74000000,2724.83000000,2736.61000000,2754.31000000,2763.63000000,2771.63000000,2791.24000000,2803.98000000,2813.84000000,2831.42000000,2838.88000000,2815.61000000,2791.14000000,2771.42000000,2750.93000000,2720.45000000,2698.86000000,2687.18000000,2665.31000000,2622.36000000,2599.25000000,2603.93000000,2582.81000000,2544.46000000,2535.64000000,2544.99000000,2553.03000000,2538.48000000,2517.07000000,2490.52000000,2457.28000000,2424.14000000,2391.06000000,2371.39000000,2360.22000000,2345.99000000,2353.10000000,2339.36000000,2312.76000000,2294.66000000,2278.87000000,2257.57000000,2238.40000000,2222.28000000,2204.44000000,2186.01000000,2164.95000000,2146.82000000,2132.56000000,2118.75000000,2105.56000000,2091.16000000,2076.84000000,2064.36000000,2052.86000000,2044.06000000,2031.41000000,2014.55000000,2003.36000000,1988.72000000,1978.55000000,1970.88000000,1958.43000000,1946.89000000,1938.07000000,1928.29000000,1918.61000000,1910.38000000,1900.15000000,1894.61000000,1888.66000000,1883.01000000,1876.07000000,1864.24000000,1855.32000000,1849.25000000,1848.47000000,1847.53000000,1841.23000000
1889.83000000,1894.74000000,1899.27000000,1917.33000000,1940.58000000,1958.38000000,1960.44000000,1951.93000000,1944.80000000,1932.70000000,1915.30000000,1900.05000000,1891.18000000,1882.07000000,1870.36000000,1870.68000000,1874.93000000,1891.45000000,1907.90000000,1915.16000000,1917.13000000,1914.39000000,1918.46000000,1927.87000000,1940.91000000,1954.55000000,1968.01000000,1984.56000000,2004.70000000,2022.04000000,2038.49000000,2055.16000000,2065.75000000,2080.49000000,2098.58000000,2117.99000000,2132.31000000,2150.29000000,2178.88000000,2206.58000000,2238.66000000,2267.33000000,2292.68000000,2321.84000000,2335.48000000,2335.35000000,2332.76000000,2331.99000000,2332.88000000,2335.98000000,2337.19000000,2343.20000000,2346.13000000,2343.21000000,2339.81000000,2338.62000000,2343.62000000,2349.63000000,2353.06000000,2359.45000000,2366.51000000,2380.37000000,2394.11000000,2404.66000000,2414.27000000,2431.44000000,2451.05000000,2459.76000000,2472.43000000,2499.53000000,2528.51000000,2536.62000000,2553.61000000,2572.98000000,2587.19000000,2591.45000000,2598.22000000,2597.45000000,2602.24000000,2616.33000000,2619.15000000,2615.71000000,2623.04000000,2635.32000000,2651.16000000,2659.53000000,2672.20000000,2681.05000000,2686.66000000,2700.14000000,2718.42000000,2745.72000000,2774.55000000,2792.56000000,2801.30000000,2813.27000000,2821.13000000,2805.85000000,2782.94000000,2767.82000000,2759.37000000,2754.17000000,2755.12000000,2761.84000000,2767.06000000,2765.56000000,2757.87000000,2753.93000000,2752.29000000,2748.31000000,2739.36000000,2736.28000000,2725.77000000,2710.61000000,2693.11000000,2673.25000000,2656.62000000,2644.05000000,2627.53000000,2609.05000000,2599.82000000,2596.77000000,2601.05000000,2596.93000000,2600.38000000,2603.26000000,2612.39000000,2615.44000000,2618.65000000,2630.29000000,2641.93000000,2654.11000000,2668.84000000,2680.07000000,2690.00000000,2703.21000000,2722.41000000,2739.42000000,2741.44000000,2753.98000000,2772.06000000,2781.72000000,2801.16000000,2820.30000000,2832.88000000,2813.75000000,2788.52000000,2761.27000000,2738.86000000,2716.54000000,2678.69000000,2651.65000000,2629.82000000,2597.78000000,2572.90000000,2560.26000000,2555.98000000,2533.26000000,2505.67000000,2509.41000000,2518.29000000,2515.42000000,2496.20000000,2470.93000000,2444.94000000,2413.20000000,2384.70000000,2355.80000000,2336.28000000,2320.36000000,2323.55000000,2319.97000000,2302.28000000,2291.71000000,2267.80000000,2239.99000000,2225.47000000,2202.92000000,2186.75000000,2169.31000000,2150.94000000,2136.63000000,2119.54000000,2107.93000000,2095.36000000,2085.41000000,2072.87000000,2061.64000000,2049.98000000,2035.59000000,2021.76000000,2007.45000000,1997.53000000,1987.27000000,1977.57000000,1967.55000000,1958.66000000,1947.97000000,1937.30000000,1930.90000000,1925.42000000,1914.63000000,1906.08000000,1898.93000000,1890.93000000,1883.25000000,1877.68000000,1869.74000000,1862.56000000,1855.05000000,1846.40000000,1838.92000000,1831.60000000
1883.52000000,1888.12000000,1895.61000000,1911.78000000,1931.33000000,1942.05000000,1940.82000000,1934.89000000,1924.54000000,1910.52000000,1896.41000000,1884.75000000,1877.17000000,1866.66000000,1857.43000000,1857.38000000,1869.25000000,1886.50000000,1896.55000000,1899.80000000,1897.37000000,1902.86000000,1917.02000000,1935.75000000,1949.24000000,1969.08000000,1982.67000000,1995.30000000,2013.69000000,2031.18000000,2049.75000000,2061.70000000,2071.99000000,2085.68000000,2103.28000000,2123.32000000,2141.97000000,2157.00000000,2184.21000000,2211.63000000,2245.86000000,2272.98000000,2300.40000000,2329.31000000,2325.88000000,2320.85000000,2317.34000000,2317.97000000,2317.10000000,2316.08000000,2322.25000000,2332.28000000,2333.74000000,2333.00000000,2334.38000000,2335.56000000,2334.59000000,2342.44000000,2344.72000000,2348.94000000,2356.38000000,2368.45000000,2377.76000000,2387.83000000,2396.65000000,2414.45000000,2429.59000000,2442.26000000,2457.84000000,2476.09000000,2500.01000000,2510.39000000,2532.09000000,2546.75000000,2557.22000000,2562.43000000,2568.63000000,2570.11000000,2579.17000000,2595.41000000,2595.21000000,2591.97000000,2597.98000000,2607.22000000,2622.68000000,2637.09000000,2657.34000000,2671.55000000,2681.07000000,2696.56000000,2724.09000000,2745.51000000,2767.06000000,2768.42000000,2778.36000000,2794.18000000,2815.92000000,2818.76000000,2796.45000000,2789.66000000,2787.18000000,2789.08000000,2788.31000000,2789.54000000,2787.70000000,2781.45000000,2767.94000000,2759.98000000,2754.93000000,2751.55000000,2748.73000000,2742.75000000,2729.97000000,2712.44000000,2694.53000000,2672.81000000,2658.70000000,2646.17000000,2628.42000000,2604.56000000,2585.05000000,2578.87000000,2581.28000000,2582.09000000,2585.69000000,2589.67000000,2595.78000000,2601.83000000,2604.71000000,2615.57000000,2626.55000000,2638.88000000,2650.78000000,2660.65000000,2671.24000000,2686.74000000,2706.87000000,2721.14000000,2722.77000000,2737.36000000,2751.41000000,2765.83000000,2788.22000000,2808.89000000,2826.88000000,2803.50000000,2776.18000000,2759.51000000,2741.42000000,2721.01000000,2689.99000000,2662.49000000,2632.28000000,2604.76000000,2574.54000000,2546.20000000,2521.75000000,2508.09000000,2485.61000000,2478.24000000,2483.56000000,2486.63000000,2468.77000000,2442.59000000,2428.57000000,2409.22000000,2389.34000000,2367.80000000,2340.65000000,2307.01000000,2287.64000000,2283.35000000,2272.80000000,2255.43000000,2239.97000000,2224.45000000,2205.91000000,2190.73000000,2175.70000000,2158.79000000,2142.65000000,2128.15000000,2113.13000000,2095.27000000,2083.85000000,2076.01000000,2069.55000000,2058.19000000,2044.66000000,2026.70000000,2015.47000000,2005.91000000,1994.33000000,1982.57000000,1976.65000000,1972.30000000,1963.02000000,1948.96000000,1945.00000000,1937.47000000,1930.26000000,1917.51000000,1906.20000000,1895.71000000,1887.11000000,1879.16000000,1872.57000000,1865.85000000,1859.84000000,1854.05000000,1847.59000000,1840.77000000,1833.98000000
1880.06000000,1887.19000000,1893.89000000,1903.64000000,1914.38000000,1929.29000000,1929.34000000,1919.93000000,1904.19000000,1890.76000000,1878.88000000,1865.08000000,1857.84000000,1849.77000000,1846.13000000,1850.23000000,1870.11000000,1879.63000000,1880.65000000,1879.83000000,1888.01000000,1903.37000000,1923.83000000,1938.42000000,1952.38000000,1971.61000000,1987.84000000,2003.45000000,2021.06000000,2035.89000000,2051.70000000,2059.72000000,2066.81000000,2082.02000000,2103.70000000,2123.80000000,2144.97000000,2163.65000000,2183.20000000,2207.98000000,2244.56000000,2276.75000000,2305.20000000,2322.63000000,2313.59000000,2309.54000000,2307.22000000,2308.95000000,2307.94000000,2305.40000000,2306.96000000,2315.18000000,2318.07000000,2321.05000000,2329.71000000,2331.29000000,2325.31000000,2330.49000000,2334.09000000,2338.18000000,2348.11000000,2356.32000000,2364.48000000,2373.22000000,2383.07000000,2399.05000000,2415.87000000,2428.97000000,2442.47000000,2457.99000000,2476.24000000,2492.96000000,2510.53000000,2529.00000000,2534.15000000,2535.36000000,2541.06000000,2544.35000000,2555.53000000,2570.53000000,2570.81000000,2564.98000000,2575.24000000,2589.43000000,2602.74000000,2615.97000000,2632.52000000,2653.95000000,2677.23000000,2695.28000000,2719.98000000,2726.75000000,2749.91000000,2743.90000000,2762.53000000,2783.06000000,2792.75000000,2810.81000000,2812.48000000,2812.66000000,2805.13000000,2805.76000000,2806.69000000,2804.63000000,2805.91000000,2792.68000000,2777.38000000,2771.67000000,2764.95000000,2761.03000000,2754.51000000,2746.56000000,2730.91000000,2714.37000000,2682.91000000,2663.34000000,2648.96000000,2635.84000000,2615.51000000,2596.26000000,2581.00000000,2567.90000000,2565.09000000,2567.74000000,2571.43000000,2579.18000000,2585.21000000,2590.37000000,2593.94000000,2598.32000000,2610.15000000,2620.29000000,2631.42000000,2639.76000000,2652.50000000,2672.06000000,2687.65000000,2693.56000000,2702.06000000,2719.43000000,2738.54000000,2761.55000000,2777.85000000,2794.79000000,2808.74000000,2794.46000000,2767.01000000,2744.97000000,2736.41000000,2706.81000000,2673.09000000,2647.55000000,2628.57000000,2606.19000000,2577.15000000,2549.11000000,2524.58000000,2503.83000000,2480.03000000,2454.42000000,2446.67000000,2445.38000000,2445.32000000,2413.64000000,2397.51000000,2390.23000000,2373.92000000,2359.05000000,2334.12000000,2301.21000000,2273.47000000,2253.19000000,2239.82000000,2233.30000000,2223.23000000,2212.25000000,2197.98000000,2180.64000000,2163.52000000,2144.72000000,2131.51000000,2118.71000000,2106.54000000,2089.03000000,2077.01000000,2065.82000000,2058.68000000,2050.26000000,2038.41000000,2026.37000000,2014.75000000,2005.20000000,1995.43000000,1985.39000000,1975.53000000,1967.67000000,1959.75000000,1956.86000000,1947.77000000,1938.84000000,1930.19000000,1922.64000000,1914.17000000,1906.79000000,1891.51000000,1883.04000000,1875.80000000,1867.00000000,1858.68000000,1851.10000000,1845.60000000,1840.03000000,1833.78000000
1874.35000000,1881.54000000,1888.83000000,1894.43000000,1898.74000000,1907.16000000,1906.85000000,1897.11000000,1885.45000000,1874.44000000,1862.23000000,1842.53000000,1834.43000000,1828.54000000,1830.97000000,1847.18000000,1861.45000000,1863.43000000,1864.03000000,1875.05000000,1890.09000000,1908.16000000,1923.82000000,1937.36000000,1953.99000000,1972.84000000,1990.20000000,2005.38000000,2019.58000000,2032.03000000,2043.90000000,2058.34000000,2072.93000000,2090.00000000,2106.24000000,2121.84000000,2139.44000000,2158.62000000,2184.89000000,2209.11000000,2243.47000000,2276.75000000,2304.64000000,2316.66000000,2307.91000000,2301.34000000,2299.25000000,2302.13000000,2300.40000000,2298.58000000,2298.77000000,2301.49000000,2304.58000000,2311.55000000,2319.82000000,2319.35000000,2312.97000000,2318.92000000,2322.49000000,2327.17000000,2336.95000000,2346.13000000,2353.51000000,2361.64000000,2375.25000000,2387.87000000,2400.78000000,2414.24000000,2427.22000000,2441.94000000,2456.74000000,2472.75000000,2494.16000000,2511.14000000,2511.66000000,2513.39000000,2517.46000000,2521.32000000,2530.97000000,2543.87000000,2551.30000000,2543.94000000,2558.63000000,2573.15000000,2587.78000000,2604.07000000,2622.76000000,2644.99000000,2668.97000000,2688.82000000,2700.89000000,2708.67000000,2717.78000000,2724.39000000,2748.70000000,2760.84000000,2782.04000000,2807.30000000,2820.98000000,2820.82000000,2819.11000000,2821.98000000,2822.76000000,2816.82000000,2811.61000000,2797.40000000,2783.89000000,2770.89000000,2756.42000000,2745.66000000,2724.23000000,2707.83000000,2701.66000000,2689.59000000,2671.89000000,2656.91000000,2645.28000000,2623.97000000,2607.13000000,2594.91000000,2584.35000000,2571.48000000,2559.14000000,2558.82000000,2563.29000000,2567.97000000,2573.46000000,2576.73000000,2582.08000000,2588.45000000,2593.94000000,2601.59000000,2611.94000000,2623.88000000,2639.58000000,2656.75000000,2672.45000000,2675.30000000,2686.59000000,2711.87000000,2732.33000000,2751.68000000,2765.94000000,2777.11000000,2790.38000000,2781.72000000,2748.84000000,2720.88000000,2708.02000000,2694.11000000,2666.64000000,2637.19000000,2616.06000000,2596.16000000,2576.04000000,2550.34000000,2523.95000000,2502.39000000,2485.87000000,2455.25000000,2436.06000000,2416.07000000,2411.05000000,2396.68000000,2371.13000000,2363.49000000,2346.11000000,2329.60000000,2310.14000000,2285.84000000,2256.57000000,2239.32000000,2223.61000000,2215.75000000,2205.43000000,2196.11000000,2184.97000000,2171.23000000,2150.59000000,2136.01000000,2124.88000000,2112.28000000,2097.13000000,2085.36000000,2073.45000000,2062.78000000,2051.89000000,2041.59000000,2032.53000000,2024.03000000,2014.38000000,2005.58000000,1996.91000000,1987.34000000,1976.80000000,1973.68000000,1969.98000000,1966.45000000,1956.21000000,1947.08000000,1938.45000000,1931.83000000,1921.59000000,1911.54000000,1898.32000000,1887.66000000,1877.35000000,1867.32000000,1858.89000000,1850.55000000,1843.81000000,1838.14000000,1833.33000000
1864.62000000,1871.78000000,1878.38000000,1876.49000000,1876.45000000,1883.79000000,1883.50000000,1878.92000000,1871.27000000,1857.42000000,1841.61000000,1821.20000000,1812.11000000,1815.58000000,1827.64000000,1836.10000000,1845.62000000,1853.08000000,1865.13000000,1878.29000000,1891.45000000,1912.93000000,1928.47000000,1942.83000000,1960.06000000,1984.32000000,2002.66000000,2021.77000000,2037.47000000,2051.53000000,2061.03000000,2075.30000000,2082.41000000,2097.78000000,2118.65000000,2135.12000000,2144.59000000,2160.73000000,2187.57000000,2216.08000000,2248.44000000,2285.70000000,2311.93000000,2310.71000000,2299.52000000,2292.20000000,2292.84000000,2294.82000000,2293.57000000,2293.76000000,2292.53000000,2289.02000000,2294.39000000,2301.58000000,2307.26000000,2304.20000000,2304.85000000,2312.22000000,2314.61000000,2316.61000000,2324.65000000,2334.84000000,2344.34000000,2353.28000000,2364.41000000,2375.61000000,2387.30000000,2398.41000000,2412.51000000,2426.57000000,2439.70000000,2455.78000000,2472.66000000,2484.06000000,2491.50000000,2492.25000000,2496.39000000,2502.97000000,2512.87000000,2520.42000000,2525.40000000,2522.37000000,2541.24000000,2555.92000000,2581.51000000,2600.44000000,2610.20000000,2625.40000000,2643.75000000,2677.90000000,2680.02000000,2687.58000000,2694.47000000,2706.32000000,2726.50000000,2751.17000000,2780.96000000,2802.43000000,2820.84000000,2826.59000000,2830.77000000,2833.08000000,2831.86000000,2819.05000000,2806.34000000,2792.23000000,2774.43000000,2762.00000000,2728.38000000,2718.29000000,2703.80000000,2692.02000000,2677.14000000,2669.09000000,2663.51000000,2654.12000000,2640.54000000,2626.26000000,2614.27000000,2602.46000000,2588.93000000,2577.67000000,2566.96000000,2557.63000000,2556.11000000,2559.24000000,2560.43000000,2562.96000000,2568.19000000,2575.68000000,2581.66000000,2589.53000000,2596.74000000,2607.80000000,2624.32000000,2641.02000000,2645.96000000,2657.80000000,2676.75000000,2703.01000000,2723.84000000,2739.36000000,2749.36000000,2760.40000000,2772.16000000,2751.87000000,2726.88000000,2710.26000000,2685.07000000,2667.88000000,2649.67000000,2631.81000000,2616.28000000,2593.57000000,2573.41000000,2547.53000000,2520.20000000,2495.80000000,2475.32000000,2455.91000000,2438.02000000,2411.32000000,2389.79000000,2371.77000000,2355.76000000,2341.22000000,2327.29000000,2307.85000000,2288.96000000,2265.48000000,2246.97000000,2232.16000000,2218.38000000,2209.75000000,2195.54000000,2184.46000000,2173.17000000,2161.49000000,2143.94000000,2131.80000000,2121.46000000,2110.62000000,2096.60000000,2084.93000000,2073.48000000,2062.21000000,2051.23000000,2042.03000000,2033.90000000,2024.64000000,2015.47000000,2006.98000000,1999.46000000,1987.77000000,1983.99000000,1981.18000000,1976.07000000,1968.87000000,1958.63000000,1950.43000000,1943.64000000,1935.27000000,1923.72000000,1911.16000000,1899.54000000,1887.89000000,1876.25000000,1864.70000000,1854.91000000,1846.18000000,1840.98000000,1834.44000000,1829.42000000
1856.09000000,1859.62000000,1858.51000000,1852.84000000,1851.47000000,1859.00000000,1863.05000000,1861.82000000,1852.64000000,1832.99000000,1807.92000000,1796.78000000,1804.32000000,1814.82000000,1823.67000000,1835.65000000,1845.23000000,1855.24000000,1870.10000000,1883.99000000,1896.35000000,1916.56000000,1931.30000000,1945.74000000,1964.73000000,1986.89000000,2006.25000000,2031.64000000,2051.02000000,2066.18000000,2079.83000000,2095.42000000,2106.30000000,2117.60000000,2130.58000000,2146.84000000,2162.83000000,2174.71000000,2199.69000000,2236.27000000,2260.32000000,2288.96000000,2306.52000000,2302.52000000,2294.24000000,2287.60000000,2287.89000000,2288.65000000,2288.01000000,2289.63000000,2289.11000000,2286.22000000,2289.44000000,2292.21000000,2296.17000000,2295.71000000,2296.88000000,2304.17000000,2306.97000000,2309.29000000,2316.59000000,2326.42000000,2335.34000000,2344.97000000,2354.57000000,2362.68000000,2372.04000000,2383.81000000,2396.63000000,2410.17000000,2425.82000000,2438.45000000,2450.94000000,2465.09000000,2469.96000000,2474.82000000,2477.30000000,2484.54000000,2492.61000000,2500.61000000,2501.59000000,2504.30000000,2523.59000000,2542.43000000,2564.97000000,2581.33000000,2588.87000000,2610.34000000,2631.66000000,2653.67000000,2651.79000000,2664.39000000,2673.74000000,2695.83000000,2729.79000000,2751.39000000,2769.76000000,2794.41000000,2810.47000000,2825.96000000,2833.70000000,2834.70000000,2832.77000000,2817.05000000,2798.30000000,2784.28000000,2767.27000000,2749.03000000,2720.08000000,2709.11000000,2697.14000000,2684.99000000,2672.70000000,2668.45000000,2665.15000000,2654.88000000,2644.60000000,2633.42000000,2619.38000000,2606.33000000,2594.20000000,2579.01000000,2568.11000000,2555.22000000,2549.66000000,2550.53000000,2548.25000000,2549.32000000,2553.45000000,2562.09000000,2569.91000000,2575.43000000,2583.46000000,2593.63000000,2608.93000000,2621.68000000,2628.81000000,2649.32000000,2670.06000000,2691.95000000,2713.79000000,2721.92000000,2729.29000000,2745.62000000,2759.39000000,2747.33000000,2720.14000000,2702.61000000,2684.06000000,2658.97000000,2634.91000000,2605.05000000,2602.73000000,2594.63000000,2571.61000000,2542.72000000,2522.23000000,2501.06000000,2479.82000000,2456.19000000,2427.92000000,2402.91000000,2383.82000000,2362.54000000,2345.86000000,2330.22000000,2311.87000000,2297.18000000,2283.90000000,2267.56000000,2250.15000000,2239.24000000,2220.46000000,2207.61000000,2192.64000000,2177.07000000,2164.67000000,2149.44000000,2136.81000000,2126.72000000,2116.34000000,2105.52000000,2093.63000000,2084.03000000,2073.26000000,2063.14000000,2053.11000000,2044.07000000,2033.49000000,2024.33000000,2015.13000000,2005.72000000,1997.20000000,1991.50000000,1985.59000000,1980.79000000,1974.74000000,1967.07000000,1956.10000000,1946.86000000,1939.97000000,1931.72000000,1922.40000000,1908.60000000,1895.70000000,1884.06000000,1871.17000000,1859.16000000,1849.83000000,1841.44000000,1834.57000000,1827.04000000,1819.94000000
1844.74000000,1844.15000000,1838.23000000,1834.71000000,1835.76000000,1842.31000000,1844.34000000,1839.35000000,1825.44000000,1806.81000000,1788.74000000,1794.39000000,1804.88000000,1813.67000000,1828.12000000,1837.52000000,1846.54000000,1857.68000000,1872.02000000,1888.59000000,1904.17000000,1920.35000000,1934.08000000,1948.77000000,1968.95000000,1988.46000000,2005.55000000,2030.83000000,2055.26000000,2078.44000000,2094.28000000,2109.53000000,2126.52000000,2137.80000000,2145.79000000,2162.12000000,2179.36000000,2194.88000000,2209.61000000,2248.27000000,2265.16000000,2275.81000000,2284.60000000,2289.73000000,2288.53000000,2283.82000000,2283.96000000,2285.22000000,2284.39000000,2286.22000000,2285.53000000,2283.28000000,2284.97000000,2287.06000000,2289.23000000,2288.61000000,2289.24000000,2294.40000000,2297.93000000,2301.20000000,2313.06000000,2318.04000000,2325.82000000,2333.38000000,2341.54000000,2351.55000000,2361.08000000,2372.68000000,2382.79000000,2399.70000000,2413.21000000,2422.12000000,2440.67000000,2450.98000000,2452.96000000,2457.68000000,2458.92000000,2465.06000000,2469.30000000,2477.20000000,2478.14000000,2488.26000000,2507.53000000,2522.31000000,2541.57000000,2557.18000000,2584.43000000,2606.49000000,2615.30000000,2622.32000000,2630.02000000,2642.26000000,2662.82000000,2686.68000000,2714.64000000,2733.87000000,2759.49000000,2784.95000000,2803.89000000,2822.56000000,2831.13000000,2835.26000000,2830.87000000,2811.94000000,2796.51000000,2782.02000000,2758.38000000,2736.79000000,2722.54000000,2713.57000000,2698.37000000,2686.22000000,2677.56000000,2675.10000000,2669.74000000,2661.66000000,2651.34000000,2639.28000000,2626.81000000,2615.98000000,2596.82000000,2571.52000000,2554.09000000,2539.39000000,2534.82000000,2540.71000000,2539.11000000,2538.18000000,2540.51000000,2544.45000000,2552.14000000,2561.64000000,2569.95000000,2581.83000000,2593.73000000,2602.76000000,2620.54000000,2644.58000000,2665.05000000,2683.49000000,2693.70000000,2699.61000000,2715.39000000,2733.50000000,2747.46000000,2725.13000000,2704.53000000,2685.01000000,2664.96000000,2652.39000000,2632.23000000,2599.75000000,2577.18000000,2571.13000000,2562.10000000,2540.08000000,2527.98000000,2506.03000000,2486.65000000,2458.07000000,2427.07000000,2406.43000000,2384.71000000,2364.33000000,2349.03000000,2331.61000000,2312.80000000,2298.44000000,2285.07000000,2268.35000000,2250.09000000,2237.11000000,2219.76000000,2210.48000000,2192.94000000,2174.86000000,2161.97000000,2145.60000000,2132.46000000,2121.71000000,2109.38000000,2099.63000000,2089.84000000,2079.97000000,2069.48000000,2059.36000000,2049.08000000,2042.09000000,2032.89000000,2023.98000000,2014.16000000,2005.83000000,2000.69000000,1991.36000000,1984.90000000,1978.49000000,1970.66000000,1964.03000000,1955.64000000,1946.67000000,1936.36000000,1926.90000000,1917.80000000,1904.82000000,1892.43000000,1878.53000000,1868.82000000,1858.72000000,1849.37000000,1841.07000000,1832.92000000,1823.61000000,1817.10000000
1823.01000000,1819.53000000,1820.31000000,1824.67000000,1822.32000000,1824.95000000,1824.84000000,1804.24000000,1795.72000000,1784.04000000,1779.35000000,1793.08000000,1804.97000000,1817.38000000,1827.57000000,1838.45000000,1848.79000000,1860.78000000,1875.89000000,1891.18000000,1908.25000000,1928.39000000,1943.71000000,1962.57000000,1985.12000000,2002.01000000,2024.81000000,2039.59000000,2055.89000000,2080.54000000,2101.12000000,2120.85000000,2138.34000000,2154.79000000,2168.66000000,2180.26000000,2198.44000000,2219.99000000,2232.90000000,2244.68000000,2244.34000000,2255.72000000,2251.93000000,2263.07000000,2276.34000000,2277.41000000,2280.90000000,2282.19000000,2281.04000000,2282.48000000,2282.34000000,2280.31000000,2281.14000000,2282.16000000,2281.96000000,2283.31000000,2283.41000000,2284.30000000,2288.03000000,2293.23000000,2306.02000000,2311.04000000,2317.53000000,2322.38000000,2330.72000000,2339.25000000,2351.73000000,2362.45000000,2375.61000000,2395.30000000,2402.11000000,2414.51000000,2433.83000000,2440.95000000,2438.65000000,2440.77000000,2438.28000000,2443.61000000,2444.56000000,2449.54000000,2454.55000000,2476.10000000,2487.84000000,2502.85000000,2519.16000000,2546.76000000,2574.95000000,2586.00000000,2587.89000000,2597.02000000,2615.93000000,2635.72000000,2658.97000000,2682.68000000,2703.55000000,2729.53000000,2755.18000000,2778.56000000,2800.21000000,2817.37000000,2826.93000000,2832.72000000,2823.21000000,2808.84000000,2793.35000000,2775.67000000,2758.28000000,2743.14000000,2731.17000000,2719.22000000,2711.76000000,2706.71000000,2695.09000000,2685.39000000,2680.35000000,2674.53000000,2667.10000000,2657.14000000,2644.80000000,2620.46000000,2576.84000000,2553.36000000,2536.82000000,2525.18000000,2518.64000000,2524.50000000,2526.10000000,2525.86000000,2526.97000000,2531.45000000,2538.14000000,2544.58000000,2554.07000000,2568.34000000,2580.16000000,2592.16000000,2610.43000000,2638.01000000,2648.27000000,2658.37000000,2674.37000000,2685.39000000,2707.15000000,2724.66000000,2732.93000000,2702.37000000,2683.43000000,2665.13000000,2642.86000000,2613.94000000,2591.88000000,2576.96000000,2559.87000000,2538.89000000,2533.31000000,2524.71000000,2513.23000000,2495.74000000,2471.27000000,2444.88000000,2421.02000000,2398.13000000,2377.90000000,2361.90000000,2343.52000000,2326.46000000,2310.59000000,2293.74000000,2277.67000000,2262.82000000,2245.87000000,2230.52000000,2215.93000000,2206.21000000,2189.16000000,2172.80000000,2158.91000000,2141.46000000,2127.84000000,2115.43000000,2103.13000000,2091.57000000,2081.32000000,2070.19000000,2062.42000000,2053.19000000,2043.67000000,2037.36000000,2029.77000000,2021.68000000,2014.85000000,2008.40000000,2002.98000000,1996.06000000,1987.42000000,1981.65000000,1972.14000000,1962.14000000,1952.65000000,1942.94000000,1933.32000000,1925.11000000,1915.07000000,1902.18000000,1888.51000000,1876.36000000,1866.28000000,1856.30000000,1847.70000000,1839.68000000,1831.40000000,1821.88000000,1815.20000000
1802.18000000,1798.06000000,1804.14000000,1810.07000000,1793.62000000,1799.55000000,1791.69000000,1779.59000000,1765.73000000,1769.73000000,1779.85000000,1791.56000000,1809.68000000,1816.85000000,1827.33000000,1839.25000000,1849.82000000,1861.79000000,1878.45000000,1893.34000000,1910.37000000,1931.67000000,1950.16000000,1968.74000000,1991.83000000,2014.86000000,2041.14000000,2054.53000000,2071.77000000,2091.01000000,2106.82000000,2128.34000000,2145.92000000,2165.48000000,2185.92000000,2204.30000000,2221.70000000,2228.89000000,2228.28000000,2225.88000000,2227.09000000,2232.54000000,2229.12000000,2237.50000000,2251.99000000,2265.39000000,2273.05000000,2275.94000000,2275.64000000,2279.88000000,2276.19000000,2273.84000000,2275.80000000,2275.88000000,2273.43000000,2275.88000000,2278.10000000,2278.03000000,2281.68000000,2284.97000000,2298.39000000,2303.28000000,2306.44000000,2313.27000000,2321.44000000,2332.59000000,2343.56000000,2356.65000000,2377.02000000,2389.52000000,2397.40000000,2410.41000000,2423.89000000,2430.66000000,2424.07000000,2424.14000000,2416.22000000,2422.18000000,2425.04000000,2427.01000000,2443.11000000,2458.66000000,2470.16000000,2495.52000000,2516.01000000,2537.24000000,2554.68000000,2560.63000000,2570.43000000,2590.18000000,2611.34000000,2637.13000000,2662.09000000,2683.39000000,2706.72000000,2731.82000000,2756.18000000,2782.30000000,2799.56000000,2807.52000000,2815.58000000,2823.59000000,2820.81000000,2809.43000000,2800.96000000,2784.59000000,2768.66000000,2756.27000000,2744.62000000,2739.25000000,2730.55000000,2724.22000000,2718.40000000,2710.80000000,2706.57000000,2696.95000000,2686.31000000,2672.31000000,2650.95000000,2593.50000000,2565.30000000,2546.20000000,2526.85000000,2515.85000000,2508.03000000,2511.03000000,2512.55000000,2512.72000000,2512.41000000,2517.93000000,2524.11000000,2530.53000000,2539.79000000,2551.92000000,2565.18000000,2580.00000000,2598.88000000,2615.93000000,2625.63000000,2639.27000000,2654.44000000,2673.49000000,2697.63000000,2713.44000000,2718.82000000,2702.91000000,2679.77000000,2650.99000000,2635.17000000,2623.93000000,2602.59000000,2570.84000000,2542.34000000,2524.02000000,2503.18000000,2492.69000000,2484.38000000,2474.98000000,2451.66000000,2430.72000000,2408.67000000,2390.54000000,2369.95000000,2355.79000000,2337.02000000,2322.44000000,2302.30000000,2287.18000000,2268.98000000,2256.11000000,2239.49000000,2224.31000000,2210.40000000,2199.29000000,2182.12000000,2168.83000000,2153.56000000,2138.42000000,2122.04000000,2108.53000000,2097.51000000,2084.07000000,2071.53000000,2061.95000000,2054.77000000,2047.62000000,2040.51000000,2033.75000000,2027.23000000,2019.87000000,2014.06000000,2006.95000000,1999.21000000,1993.88000000,1988.58000000,1982.25000000,1972.53000000,1960.25000000,1949.72000000,1935.21000000,1920.56000000,1916.44000000,1908.51000000,1895.81000000,1882.68000000,1870.42000000,1859.48000000,1849.92000000,1842.00000000,1833.85000000,1826.29000000,1818.11000000,1812.20000000
1774.93000000,1778.58000000,1793.53000000,1773.86000000,1769.12000000,1764.42000000,1765.56000000,1754.01000000,1758.26000000,1766.84000000,1783.56000000,1802.31000000,1812.90000000,1820.29000000,1831.41000000,1841.10000000,1851.86000000,1865.04000000,1879.84000000,1897.13000000,1913.58000000,1935.07000000,1952.23000000,1975.55000000,1996.63000000,2022.26000000,2049.38000000,2066.97000000,2085.32000000,2102.40000000,2118.65000000,2133.95000000,2153.34000000,2175.11000000,2199.64000000,2210.72000000,2212.41000000,2207.31000000,2207.07000000,2207.18000000,2210.69000000,2212.33000000,2205.72000000,2206.64000000,2228.90000000,2238.62000000,2242.19000000,2256.68000000,2269.80000000,2270.37000000,2267.98000000,2267.49000000,2268.76000000,2266.68000000,2265.63000000,2269.91000000,2274.19000000,2274.13000000,2277.65000000,2276.47000000,2284.97000000,2291.41000000,2298.45000000,2307.23000000,2317.87000000,2331.70000000,2342.65000000,2357.62000000,2374.42000000,2390.77000000,2395.03000000,2407.26000000,2418.77000000,2420.65000000,2412.60000000,2409.07000000,2396.61000000,2400.73000000,2405.91000000,2414.06000000,2431.70000000,2442.39000000,2467.00000000,2488.39000000,2516.72000000,2533.28000000,2531.07000000,2538.94000000,2558.90000000,2586.74000000,2609.78000000,2642.95000000,2667.10000000,2691.62000000,2703.94000000,2727.24000000,2754.50000000,2777.79000000,2789.53000000,2795.90000000,2804.69000000,2809.66000000,2818.79000000,2811.99000000,2803.94000000,2798.23000000,2789.17000000,2781.52000000,2778.40000000,2767.47000000,2752.66000000,2748.93000000,2747.88000000,2735.94000000,2731.19000000,2723.64000000,2695.49000000,2663.32000000,2609.76000000,2581.24000000,2561.67000000,2544.20000000,2524.53000000,2509.62000000,2502.09000000,2500.39000000,2500.99000000,2501.18000000,2501.28000000,2504.60000000,2507.99000000,2516.53000000,2528.19000000,2539.84000000,2548.33000000,2565.10000000,2581.39000000,2592.21000000,2603.46000000,2620.80000000,2643.14000000,2664.63000000,2682.78000000,2686.78000000,2697.07000000,2706.01000000,2688.34000000,2663.18000000,2636.55000000,2616.45000000,2589.36000000,2570.20000000,2550.90000000,2525.49000000,2499.21000000,2470.68000000,2451.75000000,2450.18000000,2438.33000000,2421.06000000,2396.36000000,2381.64000000,2364.37000000,2347.92000000,2331.46000000,2315.75000000,2298.69000000,2281.53000000,2265.23000000,2247.29000000,2232.53000000,2217.49000000,2203.29000000,2192.21000000,2176.77000000,2160.30000000,2145.90000000,2132.42000000,2116.39000000,2102.77000000,2091.03000000,2079.93000000,2067.60000000,2053.08000000,2045.86000000,2040.02000000,2036.66000000,2031.57000000,2020.98000000,2015.00000000,2010.68000000,2004.45000000,1998.16000000,1993.69000000,1988.93000000,1978.88000000,1968.41000000,1955.93000000,1943.62000000,1930.65000000,1912.61000000,1899.54000000,1892.99000000,1883.15000000,1871.53000000,1860.76000000,1849.48000000,1841.22000000,1831.99000000,1825.30000000,1819.52000000,1813.85000000,1809.60000000
1751.94000000,1771.84000000,1777.64000000,1748.77000000,1746.50000000,1744.38000000,1742.74000000,1745.73000000,1760.51000000,1779.11000000,1793.97000000,1810.71000000,1822.28000000,1827.35000000,1829.33000000,1843.85000000,1855.61000000,1875.10000000,1889.82000000,1900.45000000,1921.81000000,1942.81000000,1964.28000000,1982.76000000,2004.96000000,2031.62000000,2052.32000000,2071.31000000,2088.99000000,2108.77000000,2123.58000000,2143.77000000,2169.61000000,2193.80000000,2207.35000000,2203.16000000,2196.99000000,2188.84000000,2185.25000000,2185.74000000,2189.16000000,2185.14000000,2178.45000000,2181.03000000,2198.55000000,2209.76000000,2216.89000000,2240.02000000,2259.12000000,2261.96000000,2264.20000000,2260.64000000,2258.36000000,2256.79000000,2257.34000000,2263.40000000,2269.51000000,2270.41000000,2269.84000000,2264.04000000,2265.46000000,2277.52000000,2293.86000000,2306.91000000,2317.94000000,2328.05000000,2340.42000000,2358.42000000,2370.39000000,2378.87000000,2390.47000000,2400.94000000,2396.33000000,2400.66000000,2397.48000000,2389.97000000,2375.15000000,2378.97000000,2387.91000000,2404.72000000,2414.19000000,2441.34000000,2470.38000000,2496.88000000,2504.65000000,2502.95000000,2510.20000000,2531.63000000,2561.66000000,2587.73000000,2609.34000000,2639.81000000,2664.01000000,2673.30000000,2688.27000000,2715.08000000,2746.82000000,2774.18000000,2783.74000000,2789.86000000,2798.26000000,2807.85000000,2815.91000000,2822.92000000,2824.11000000,2812.17000000,2806.56000000,2814.26000000,2820.23000000,2797.92000000,2786.44000000,2780.12000000,2760.47000000,2748.74000000,2738.80000000,2713.31000000,2687.59000000,2648.14000000,2594.95000000,2570.43000000,2552.68000000,2537.47000000,2519.58000000,2506.25000000,2496.47000000,2489.03000000,2488.42000000,2490.44000000,2491.09000000,2491.17000000,2494.55000000,2503.84000000,2514.17000000,2526.24000000,2534.97000000,2544.38000000,2558.56000000,2574.33000000,2592.60000000,2617.83000000,2637.43000000,2650.32000000,2660.98000000,2656.43000000,2677.29000000,2698.37000000,2700.16000000,2666.41000000,2639.11000000,2621.54000000,2595.42000000,2572.11000000,2544.76000000,2526.82000000,2502.42000000,2469.75000000,2441.56000000,2423.93000000,2407.46000000,2398.84000000,2386.47000000,2370.45000000,2351.55000000,2336.74000000,2319.34000000,2301.14000000,2288.41000000,2273.14000000,2256.89000000,2239.68000000,2223.49000000,2209.67000000,2195.57000000,2184.66000000,2170.33000000,2154.20000000,2141.20000000,2127.77000000,2113.08000000,2097.16000000,2086.46000000,2075.98000000,2062.95000000,2049.98000000,2042.27000000,2030.65000000,2026.30000000,2026.08000000,2017.27000000,2009.84000000,2007.36000000,2001.27000000,1996.01000000,1991.52000000,1984.82000000,1967.75000000,1952.57000000,1950.64000000,1937.93000000,1921.89000000,1904.63000000,1886.02000000,1877.43000000,1869.37000000,1861.59000000,1851.41000000,1843.02000000,1835.99000000,1829.20000000,1818.70000000,1813.65000000,1809.08000000,1806.63000000
1738.43000000,1749.49000000,1740.62000000,1736.83000000,1727.47000000,1728.89000000,1740.43000000,1757.21000000,1776.64000000,1792.04000000,1805.72000000,1821.15000000,1825.15000000,1828.80000000,1836.00000000,1850.64000000,1863.43000000,1881.15000000,1898.20000000,1915.71000000,1929.94000000,1947.75000000,1976.93000000,2000.09000000,2018.76000000,2039.41000000,2057.47000000,2076.26000000,2094.80000000,2114.76000000,2129.64000000,2153.29000000,2182.78000000,2202.01000000,2200.64000000,2190.35000000,2181.12000000,2167.99000000,2159.93000000,2165.12000000,2168.79000000,2161.31000000,2159.04000000,2160.24000000,2166.84000000,2175.56000000,2195.93000000,2223.03000000,2236.36000000,2249.03000000,2260.00000000,2256.99000000,2251.82000000,2246.49000000,2246.42000000,2253.84000000,2262.14000000,2262.98000000,2252.26000000,2244.19000000,2242.42000000,2252.56000000,2278.62000000,2297.78000000,2297.37000000,2315.87000000,2334.93000000,2352.42000000,2363.70000000,2373.34000000,2386.32000000,2387.81000000,2372.79000000,2372.80000000,2377.93000000,2368.47000000,2355.98000000,2365.32000000,2378.06000000,2394.61000000,2417.46000000,2448.73000000,2470.40000000,2469.67000000,2470.67000000,2479.74000000,2501.31000000,2530.51000000,2560.60000000,2578.10000000,2605.22000000,2629.28000000,2647.95000000,2647.11000000,2679.52000000,2707.60000000,2737.30000000,2761.19000000,2769.48000000,2782.48000000,2783.48000000,2799.22000000,2811.92000000,2827.52000000,2852.82000000,2864.01000000,2850.92000000,2845.52000000,2829.32000000,2801.30000000,2793.44000000,2774.96000000,2744.87000000,2734.81000000,2707.32000000,2689.38000000,2665.40000000,2634.76000000,2587.57000000,2558.58000000,2542.07000000,2527.29000000,2510.94000000,2500.22000000,2490.27000000,2477.46000000,2476.57000000,2479.15000000,2479.82000000,2480.50000000,2483.89000000,2490.95000000,2499.97000000,2504.68000000,2514.90000000,2525.76000000,2538.23000000,2560.15000000,2585.03000000,2606.95000000,2620.41000000,2633.63000000,2633.30000000,2636.22000000,2664.90000000,2687.60000000,2685.50000000,2656.31000000,2634.91000000,2620.11000000,2599.04000000,2577.58000000,2546.51000000,2521.71000000,2497.94000000,2480.51000000,2456.34000000,2427.29000000,2398.46000000,2382.12000000,2371.41000000,2354.43000000,2338.73000000,2324.96000000,2308.59000000,2291.73000000,2276.68000000,2260.39000000,2245.28000000,2227.91000000,2212.78000000,2199.46000000,2186.15000000,2177.37000000,2163.96000000,2147.06000000,2136.00000000,2123.30000000,2108.74000000,2095.05000000,2083.86000000,2072.06000000,2059.21000000,2048.14000000,2036.56000000,2026.56000000,2016.53000000,2010.29000000,2006.20000000,2005.06000000,2004.05000000,2001.75000000,1997.10000000,1991.30000000,1972.70000000,1959.45000000,1944.27000000,1936.11000000,1928.21000000,1907.33000000,1889.84000000,1879.70000000,1870.76000000,1863.38000000,1856.61000000,1847.22000000,1839.80000000,1833.72000000,1828.58000000,1822.70000000,1817.06000000,1809.45000000,1802.72000000
1721.31000000,1724.31000000,1715.01000000,1714.71000000,1724.42000000,1747.04000000,1766.37000000,1777.96000000,1789.50000000,1805.07000000,1820.10000000,1824.97000000,1829.64000000,1835.94000000,1844.35000000,1855.86000000,1869.00000000,1887.01000000,1908.14000000,1930.99000000,1946.57000000,1960.31000000,1982.66000000,2010.44000000,2039.32000000,2056.85000000,2071.28000000,2086.72000000,2106.07000000,2124.05000000,2146.07000000,2175.58000000,2194.62000000,2197.95000000,2191.74000000,2178.58000000,2165.82000000,2150.40000000,2141.97000000,2147.62000000,2144.03000000,2141.81000000,2138.60000000,2137.63000000,2147.68000000,2166.11000000,2189.89000000,2204.43000000,2214.06000000,2238.69000000,2252.13000000,2248.46000000,2239.60000000,2236.22000000,2240.19000000,2246.57000000,2250.04000000,2239.13000000,2229.61000000,2218.03000000,2220.99000000,2232.18000000,2250.78000000,2260.94000000,2264.82000000,2293.76000000,2324.41000000,2342.25000000,2361.72000000,2372.29000000,2370.81000000,2368.45000000,2355.07000000,2348.72000000,2351.78000000,2346.59000000,2341.65000000,2355.93000000,2366.15000000,2390.55000000,2413.35000000,2432.23000000,2444.14000000,2441.11000000,2452.48000000,2472.15000000,2501.01000000,2523.77000000,2540.94000000,2570.78000000,2591.87000000,2606.64000000,2617.42000000,2629.64000000,2657.96000000,2686.10000000,2715.28000000,2741.30000000,2745.66000000,2756.47000000,2763.21000000,2791.71000000,2805.93000000,2822.86000000,2846.96000000,2866.05000000,2844.48000000,2824.95000000,2801.06000000,2785.95000000,2784.37000000,2755.11000000,2718.09000000,2686.56000000,2680.08000000,2653.45000000,2636.74000000,2607.42000000,2574.24000000,2545.60000000,2528.25000000,2514.65000000,2500.54000000,2488.76000000,2481.37000000,2471.15000000,2465.86000000,2466.25000000,2466.72000000,2467.89000000,2473.74000000,2479.79000000,2485.01000000,2491.60000000,2498.90000000,2511.18000000,2527.36000000,2542.90000000,2563.83000000,2585.27000000,2597.25000000,2604.53000000,2609.07000000,2631.45000000,2660.37000000,2683.20000000,2682.55000000,2653.69000000,2635.42000000,2624.86000000,2603.24000000,2579.22000000,2551.60000000,2532.18000000,2511.00000000,2482.95000000,2452.89000000,2425.75000000,2396.06000000,2367.72000000,2350.29000000,2336.36000000,2323.08000000,2310.82000000,2294.27000000,2276.77000000,2262.14000000,2247.37000000,2234.62000000,2214.95000000,2199.32000000,2185.79000000,2175.14000000,2168.32000000,2152.22000000,2139.68000000,2129.80000000,2118.13000000,2100.92000000,2091.10000000,2079.63000000,2068.28000000,2056.16000000,2045.07000000,2034.82000000,2023.14000000,2011.99000000,2003.18000000,1994.15000000,1996.41000000,1996.86000000,1996.66000000,1983.28000000,1984.52000000,1965.06000000,1944.09000000,1932.74000000,1920.74000000,1915.46000000,1897.57000000,1882.10000000,1871.50000000,1862.94000000,1856.84000000,1851.14000000,1845.96000000,1841.20000000,1838.99000000,1834.02000000,1826.72000000,1819.10000000,1810.49000000,1803.74000000
1705.98000000,1699.63000000,1705.10000000,1723.29000000,1740.57000000,1758.39000000,1782.40000000,1798.77000000,1807.77000000,1821.78000000,1827.27000000,1831.69000000,1834.67000000,1842.17000000,1849.55000000,1862.69000000,1879.45000000,1897.55000000,1923.68000000,1941.00000000,1955.16000000,1971.91000000,1990.52000000,2014.08000000,2041.05000000,2063.04000000,2087.89000000,2103.63000000,2123.03000000,2144.48000000,2168.21000000,2186.08000000,2191.09000000,2189.04000000,2184.30000000,2166.16000000,2148.27000000,2136.75000000,2126.60000000,2130.88000000,2125.00000000,2119.01000000,2119.72000000,2120.82000000,2138.78000000,2152.63000000,2169.83000000,2177.75000000,2202.69000000,2231.65000000,2244.38000000,2231.90000000,2219.12000000,2229.61000000,2231.16000000,2238.02000000,2236.28000000,2218.29000000,2203.73000000,2198.18000000,2198.07000000,2210.60000000,2226.74000000,2231.58000000,2255.45000000,2283.59000000,2312.82000000,2340.52000000,2356.07000000,2353.92000000,2349.38000000,2346.62000000,2337.81000000,2324.54000000,2323.52000000,2320.24000000,2330.57000000,2346.18000000,2363.55000000,2388.64000000,2401.89000000,2408.94000000,2417.27000000,2424.67000000,2443.65000000,2472.60000000,2487.78000000,2516.74000000,2539.49000000,2552.80000000,2572.58000000,2579.49000000,2593.93000000,2616.65000000,2644.09000000,2679.88000000,2704.55000000,2719.39000000,2718.63000000,2726.53000000,2751.21000000,2776.47000000,2798.63000000,2816.65000000,2833.70000000,2844.58000000,2826.29000000,2789.61000000,2769.12000000,2754.72000000,2754.02000000,2723.72000000,2689.97000000,2655.78000000,2641.41000000,2623.07000000,2596.55000000,2578.14000000,2556.30000000,2528.66000000,2510.59000000,2499.23000000,2488.47000000,2481.41000000,2471.82000000,2465.66000000,2459.99000000,2456.88000000,2458.44000000,2458.09000000,2462.26000000,2466.94000000,2469.57000000,2479.72000000,2488.70000000,2496.61000000,2510.06000000,2526.08000000,2543.89000000,2561.09000000,2569.86000000,2582.24000000,2599.30000000,2620.22000000,2646.28000000,2661.00000000,2652.02000000,2635.09000000,2603.83000000,2594.92000000,2580.48000000,2568.84000000,2543.47000000,2522.97000000,2498.51000000,2473.93000000,2450.54000000,2417.83000000,2392.09000000,2368.51000000,2345.20000000,2328.51000000,2311.70000000,2297.60000000,2284.35000000,2267.81000000,2251.14000000,2233.66000000,2217.57000000,2202.03000000,2187.25000000,2170.47000000,2159.29000000,2150.45000000,2140.16000000,2131.84000000,2122.14000000,2110.65000000,2097.09000000,2087.80000000,2075.28000000,2064.13000000,2052.59000000,2041.77000000,2031.89000000,2020.09000000,2008.44000000,1992.35000000,1982.82000000,1978.64000000,1977.88000000,1975.05000000,1966.41000000,1945.31000000,1931.46000000,1925.12000000,1918.50000000,1903.67000000,1903.28000000,1893.81000000,1882.55000000,1872.15000000,1864.53000000,1860.65000000,1856.11000000,1851.92000000,1847.07000000,1846.20000000,1839.86000000,1829.23000000,1819.49000000,1802.03000000,1797.73000000
1689.32000000,1698.55000000,1716.94000000,1730.36000000,1746.57000000,1771.48000000,1793.99000000,1809.16000000,1818.32000000,1829.96000000,1833.91000000,1838.69000000,1844.44000000,1848.88000000,1856.39000000,1870.39000000,1888.97000000,1911.52000000,1932.87000000,1950.43000000,1965.68000000,1986.46000000,2003.40000000,2022.76000000,2042.68000000,2069.54000000,2099.91000000,2123.82000000,2140.65000000,2160.67000000,2173.62000000,2182.35000000,2189.33000000,2184.42000000,2172.21000000,2155.78000000,2136.69000000,2124.36000000,2111.79000000,2110.52000000,2108.94000000,2104.49000000,2106.06000000,2108.15000000,2122.78000000,2130.44000000,2143.83000000,2164.80000000,2188.00000000,2220.00000000,2231.44000000,2216.91000000,2211.50000000,2221.03000000,2222.56000000,2221.58000000,2225.11000000,2211.46000000,2192.57000000,2180.23000000,2182.23000000,2193.88000000,2202.93000000,2220.77000000,2254.03000000,2290.59000000,2311.83000000,2327.78000000,2339.09000000,2333.11000000,2329.90000000,2321.33000000,2316.80000000,2307.35000000,2297.65000000,2308.41000000,2321.60000000,2339.68000000,2359.65000000,2374.08000000,2379.71000000,2386.45000000,2400.58000000,2412.01000000,2434.92000000,2454.32000000,2482.15000000,2512.07000000,2516.45000000,2534.49000000,2545.18000000,2563.01000000,2597.97000000,2625.66000000,2647.46000000,2660.70000000,2673.63000000,2689.03000000,2692.39000000,2723.83000000,2750.41000000,2771.55000000,2792.57000000,2807.82000000,2812.47000000,2825.72000000,2794.57000000,2763.08000000,2745.39000000,2725.58000000,2713.59000000,2689.80000000,2663.05000000,2635.36000000,2610.60000000,2593.66000000,2568.69000000,2551.29000000,2536.23000000,2518.24000000,2503.22000000,2492.22000000,2481.61000000,2471.12000000,2463.79000000,2458.34000000,2453.09000000,2448.18000000,2448.44000000,2448.07000000,2452.02000000,2453.61000000,2456.39000000,2464.71000000,2474.75000000,2483.75000000,2495.64000000,2510.76000000,2524.57000000,2537.45000000,2548.41000000,2567.02000000,2586.47000000,2606.99000000,2628.70000000,2645.43000000,2637.81000000,2610.73000000,2588.46000000,2575.73000000,2555.22000000,2537.28000000,2522.03000000,2500.42000000,2478.32000000,2454.11000000,2431.09000000,2403.32000000,2381.90000000,2362.57000000,2343.88000000,2329.03000000,2313.50000000,2296.86000000,2283.40000000,2267.71000000,2251.40000000,2233.99000000,2216.44000000,2199.15000000,2185.84000000,2173.51000000,2156.05000000,2141.70000000,2128.46000000,2117.47000000,2109.27000000,2099.35000000,2089.07000000,2077.13000000,2069.07000000,2061.36000000,2048.36000000,2032.12000000,2018.42000000,2008.00000000,1990.95000000,1979.17000000,1967.08000000,1956.55000000,1948.95000000,1937.31000000,1925.45000000,1917.80000000,1905.86000000,1897.34000000,1888.84000000,1880.41000000,1881.37000000,1886.07000000,1882.66000000,1875.32000000,1868.28000000,1863.54000000,1859.27000000,1855.77000000,1852.77000000,1851.24000000,1846.80000000,1832.07000000,1817.15000000,1801.26000000,1794.13000000
1686.08000000,1699.07000000,1727.19000000,1746.57000000,1760.33000000,1773.50000000,1792.01000000,1812.54000000,1824.99000000,1834.84000000,1840.11000000,1845.55000000,1852.44000000,1858.41000000,1868.92000000,1883.46000000,1898.48000000,1916.94000000,1936.88000000,1955.99000000,1976.31000000,2000.76000000,2017.97000000,2031.36000000,2050.43000000,2080.98000000,2109.88000000,2135.06000000,2155.21000000,2163.81000000,2152.44000000,2167.54000000,2182.45000000,2171.94000000,2158.22000000,2144.91000000,2124.93000000,2109.04000000,2098.78000000,2093.74000000,2091.36000000,2088.53000000,2088.19000000,2090.44000000,2102.09000000,2113.03000000,2131.97000000,2149.74000000,2174.09000000,2211.52000000,2221.38000000,2208.91000000,2197.76000000,2207.11000000,2208.68000000,2201.36000000,2206.40000000,2195.19000000,2184.01000000,2164.78000000,2166.26000000,2174.93000000,2197.66000000,2223.82000000,2247.66000000,2273.10000000,2299.85000000,2316.90000000,2313.39000000,2304.43000000,2307.49000000,2304.66000000,2291.08000000,2284.09000000,2283.15000000,2300.69000000,2317.99000000,2341.11000000,2353.56000000,2355.20000000,2359.33000000,2373.17000000,2388.94000000,2414.49000000,2426.05000000,2445.34000000,2477.37000000,2494.79000000,2498.23000000,2510.82000000,2531.36000000,2556.41000000,2587.94000000,2614.32000000,2617.71000000,2632.85000000,2655.47000000,2659.41000000,2683.67000000,2720.91000000,2744.50000000,2769.22000000,2781.48000000,2789.15000000,2789.95000000,2800.77000000,2787.15000000,2762.77000000,2743.99000000,2709.08000000,2680.18000000,2660.66000000,2636.20000000,2609.70000000,2590.97000000,2576.60000000,2557.66000000,2540.15000000,2522.59000000,2507.82000000,2497.34000000,2488.71000000,2478.53000000,2468.00000000,2457.47000000,2450.39000000,2443.59000000,2440.87000000,2438.35000000,2439.25000000,2441.02000000,2440.95000000,2442.56000000,2446.13000000,2453.87000000,2466.20000000,2482.12000000,2494.33000000,2507.85000000,2521.66000000,2536.77000000,2558.98000000,2577.62000000,2595.77000000,2619.45000000,2639.94000000,2636.76000000,2608.20000000,2578.68000000,2566.45000000,2537.54000000,2517.13000000,2500.15000000,2484.57000000,2458.84000000,2437.89000000,2420.19000000,2398.78000000,2378.24000000,2359.78000000,2343.78000000,2327.48000000,2311.30000000,2295.34000000,2279.97000000,2263.96000000,2245.33000000,2232.31000000,2216.14000000,2202.91000000,2189.72000000,2177.44000000,2159.65000000,2145.95000000,2131.23000000,2120.22000000,2102.22000000,2089.51000000,2079.25000000,2068.96000000,2058.41000000,2047.97000000,2034.59000000,2021.21000000,2013.37000000,2005.91000000,1994.67000000,1986.63000000,1984.20000000,1975.38000000,1958.48000000,1941.91000000,1927.90000000,1919.69000000,1909.54000000,1900.45000000,1889.88000000,1878.57000000,1866.99000000,1872.65000000,1876.23000000,1872.85000000,1865.84000000,1859.76000000,1856.04000000,1851.77000000,1850.87000000,1850.51000000,1839.53000000,1826.63000000,1811.66000000,1797.97000000,1787.37000000
1691.84000000,1712.28000000,1729.02000000,1746.31000000,1763.59000000,1778.89000000,1798.26000000,1817.40000000,1828.27000000,1840.44000000,1847.62000000,1851.75000000,1860.20000000,1872.07000000,1886.58000000,1899.28000000,1914.56000000,1931.82000000,1947.49000000,1963.81000000,1984.03000000,2005.11000000,2031.10000000,2047.64000000,2072.72000000,2101.28000000,2125.28000000,2151.47000000,2159.45000000,2149.89000000,2135.99000000,2148.87000000,2168.00000000,2155.94000000,2137.47000000,2126.24000000,2112.52000000,2097.46000000,2084.96000000,2082.36000000,2079.77000000,2076.41000000,2073.25000000,2073.81000000,2085.66000000,2099.65000000,2123.57000000,2141.87000000,2170.64000000,2200.64000000,2203.47000000,2187.59000000,2175.88000000,2180.45000000,2188.43000000,2180.47000000,2183.39000000,2176.68000000,2164.57000000,2149.97000000,2146.47000000,2164.54000000,2189.47000000,2221.36000000,2245.57000000,2266.40000000,2287.01000000,2295.88000000,2291.71000000,2279.65000000,2285.89000000,2291.34000000,2272.28000000,2263.89000000,2274.05000000,2288.03000000,2313.14000000,2326.79000000,2332.20000000,2340.78000000,2351.66000000,2360.58000000,2378.48000000,2392.77000000,2407.16000000,2434.77000000,2461.24000000,2469.82000000,2482.35000000,2501.20000000,2527.78000000,2546.08000000,2565.61000000,2581.30000000,2596.71000000,2621.98000000,2629.78000000,2652.91000000,2678.01000000,2708.70000000,2735.47000000,2754.28000000,2759.52000000,2765.95000000,2759.68000000,2770.85000000,2760.62000000,2733.38000000,2710.97000000,2687.08000000,2660.47000000,2643.30000000,2623.16000000,2600.86000000,2580.52000000,2563.42000000,2545.96000000,2526.92000000,2512.07000000,2496.97000000,2486.49000000,2473.88000000,2468.26000000,2462.59000000,2455.13000000,2444.22000000,2437.25000000,2434.46000000,2429.00000000,2427.65000000,2426.52000000,2428.37000000,2431.02000000,2431.38000000,2436.87000000,2445.77000000,2462.53000000,2481.02000000,2493.25000000,2510.03000000,2531.86000000,2551.02000000,2564.69000000,2583.64000000,2607.85000000,2633.55000000,2634.62000000,2603.59000000,2575.04000000,2560.67000000,2533.32000000,2504.95000000,2486.82000000,2464.39000000,2445.25000000,2431.09000000,2412.85000000,2394.43000000,2376.15000000,2358.61000000,2342.99000000,2328.30000000,2312.09000000,2299.05000000,2285.82000000,2269.11000000,2249.31000000,2233.29000000,2215.58000000,2200.58000000,2189.29000000,2174.28000000,2159.65000000,2146.15000000,2133.15000000,2122.24000000,2109.21000000,2096.85000000,2085.76000000,2071.37000000,2060.47000000,2048.33000000,2039.69000000,2032.13000000,2020.91000000,2010.79000000,2001.70000000,1998.96000000,2002.39000000,1993.25000000,1979.19000000,1964.28000000,1945.83000000,1931.16000000,1920.93000000,1904.29000000,1889.97000000,1877.01000000,1863.97000000,1857.11000000,1861.11000000,1858.94000000,1856.31000000,1852.61000000,1849.81000000,1844.41000000,1837.01000000,1830.01000000,1820.72000000,1807.59000000,1794.01000000,1776.74000000,1762.31000000
1701.44000000,1725.34000000,1734.76000000,1747.56000000,1769.75000000,1795.21000000,1820.36000000,1838.14000000,1842.95000000,1849.28000000,1855.53000000,1861.72000000,1872.91000000,1888.89000000,1900.72000000,1915.19000000,1931.62000000,1946.96000000,1964.36000000,1984.93000000,2004.30000000,2027.38000000,2042.38000000,2063.72000000,2086.73000000,2118.49000000,2138.66000000,2151.82000000,2141.62000000,2125.68000000,2112.37000000,2131.94000000,2146.40000000,2135.58000000,2122.09000000,2111.74000000,2102.87000000,2086.40000000,2074.16000000,2071.41000000,2068.78000000,2065.32000000,2057.14000000,2057.24000000,2066.07000000,2084.00000000,2113.85000000,2134.31000000,2154.12000000,2180.26000000,2190.81000000,2169.55000000,2156.57000000,2160.55000000,2172.28000000,2157.24000000,2161.25000000,2154.53000000,2146.71000000,2132.51000000,2130.94000000,2149.11000000,2172.29000000,2202.89000000,2236.57000000,2251.24000000,2270.76000000,2268.07000000,2266.79000000,2262.98000000,2266.38000000,2266.05000000,2252.30000000,2254.15000000,2264.29000000,2275.44000000,2292.43000000,2305.97000000,2317.06000000,2328.59000000,2338.35000000,2348.28000000,2361.52000000,2374.55000000,2399.90000000,2421.47000000,2436.53000000,2454.68000000,2472.69000000,2492.13000000,2514.29000000,2525.45000000,2544.42000000,2561.24000000,2591.23000000,2598.74000000,2618.91000000,2642.64000000,2669.93000000,2702.57000000,2716.63000000,2732.50000000,2733.60000000,2731.73000000,2729.05000000,2731.66000000,2722.59000000,2685.76000000,2671.74000000,2658.79000000,2640.20000000,2625.84000000,2611.55000000,2591.28000000,2573.31000000,2553.28000000,2536.93000000,2521.55000000,2508.19000000,2492.49000000,2484.49000000,2475.64000000,2464.81000000,2458.28000000,2452.78000000,2446.14000000,2437.90000000,2430.99000000,2422.74000000,2416.86000000,2416.77000000,2418.02000000,2419.29000000,2420.43000000,2425.62000000,2437.67000000,2453.93000000,2471.86000000,2485.59000000,2498.81000000,2517.37000000,2534.35000000,2549.15000000,2568.18000000,2586.63000000,2609.26000000,2621.88000000,2585.60000000,2559.49000000,2543.64000000,2515.26000000,2494.70000000,2473.31000000,2448.49000000,2431.50000000,2414.72000000,2397.40000000,2384.14000000,2372.08000000,2354.91000000,2340.58000000,2324.97000000,2310.99000000,2299.57000000,2283.21000000,2266.57000000,2253.44000000,2238.46000000,2221.69000000,2204.75000000,2187.82000000,2167.24000000,2156.87000000,2145.48000000,2134.72000000,2123.18000000,2111.57000000,2098.80000000,2087.53000000,2075.81000000,2066.15000000,2055.95000000,2045.36000000,2038.56000000,2020.86000000,2008.28000000,2008.39000000,2013.92000000,2009.64000000,2005.69000000,1990.17000000,1975.89000000,1967.98000000,1954.29000000,1940.41000000,1924.43000000,1909.44000000,1890.82000000,1877.18000000,1859.18000000,1844.15000000,1843.22000000,1840.69000000,1835.90000000,1835.06000000,1829.11000000,1817.05000000,1806.95000000,1798.58000000,1786.59000000,1764.35000000,1749.01000000,1740.05000000
1710.19000000,1733.80000000,1748.40000000,1766.79000000,1782.90000000,1803.17000000,1834.46000000,1856.61000000,1861.87000000,1856.85000000,1862.83000000,1871.78000000,1885.13000000,1899.36000000,1914.21000000,1931.20000000,1947.62000000,1966.06000000,1987.48000000,2006.74000000,2015.92000000,2028.07000000,2046.49000000,2069.40000000,2092.02000000,2120.19000000,2136.36000000,2137.02000000,2129.11000000,2108.37000000,2091.13000000,2108.96000000,2118.27000000,2106.36000000,2104.92000000,2099.43000000,2089.33000000,2078.23000000,2067.51000000,2060.01000000,2058.24000000,2054.44000000,2043.68000000,2041.57000000,2051.68000000,2067.19000000,2089.55000000,2115.90000000,2136.49000000,2161.48000000,2180.65000000,2162.69000000,2141.16000000,2145.51000000,2158.00000000,2140.29000000,2137.91000000,2133.13000000,2121.77000000,2117.78000000,2130.39000000,2156.84000000,2181.42000000,2207.72000000,2235.11000000,2252.03000000,2253.01000000,2242.96000000,2239.85000000,2240.27000000,2239.70000000,2239.25000000,2236.90000000,2243.82000000,2256.19000000,2269.39000000,2283.91000000,2297.93000000,2310.88000000,2321.12000000,2332.60000000,2345.13000000,2357.49000000,2372.88000000,2391.11000000,2407.82000000,2425.32000000,2442.33000000,2459.54000000,2475.95000000,2491.49000000,2513.42000000,2530.61000000,2551.00000000,2568.16000000,2595.25000000,2624.80000000,2645.55000000,2666.93000000,2684.57000000,2690.96000000,2707.07000000,2708.76000000,2701.21000000,2700.82000000,2692.27000000,2680.83000000,2663.05000000,2651.74000000,2639.22000000,2622.65000000,2608.43000000,2596.23000000,2581.43000000,2563.57000000,2545.66000000,2530.11000000,2518.11000000,2506.20000000,2494.54000000,2484.49000000,2474.32000000,2466.13000000,2460.36000000,2454.34000000,2445.85000000,2431.40000000,2423.00000000,2415.31000000,2407.48000000,2407.93000000,2407.77000000,2408.68000000,2411.25000000,2417.91000000,2430.53000000,2442.12000000,2454.10000000,2469.14000000,2486.34000000,2499.81000000,2517.46000000,2534.35000000,2555.30000000,2572.00000000,2592.89000000,2611.01000000,2582.27000000,2553.75000000,2540.68000000,2520.16000000,2499.53000000,2482.93000000,2458.67000000,2440.34000000,2419.26000000,2393.99000000,2372.93000000,2359.67000000,2344.13000000,2333.57000000,2319.48000000,2305.71000000,2294.27000000,2277.88000000,2262.68000000,2249.07000000,2234.31000000,2217.33000000,2201.26000000,2182.95000000,2165.11000000,2152.22000000,2144.66000000,2132.03000000,2118.51000000,2106.43000000,2096.13000000,2081.32000000,2070.36000000,2058.78000000,2048.60000000,2039.94000000,2030.25000000,2022.44000000,2019.86000000,2024.90000000,2025.59000000,2024.77000000,2020.47000000,2008.47000000,2000.85000000,1987.08000000,1972.67000000,1955.34000000,1938.21000000,1918.35000000,1909.84000000,1892.17000000,1871.53000000,1849.77000000,1834.87000000,1824.95000000,1817.58000000,1812.89000000,1803.83000000,1796.13000000,1788.59000000,1781.84000000,1770.68000000,1765.65000000,1766.55000000,1760.74000000
1715.60000000,1734.48000000,1750.05000000,1767.27000000,1785.65000000,1814.82000000,1841.81000000,1856.85000000,1858.37000000,1850.95000000,1846.07000000,1862.17000000,1883.08000000,1908.45000000,1925.96000000,1939.32000000,1943.16000000,1959.43000000,1981.73000000,2001.19000000,2007.67000000,2026.69000000,2044.37000000,2062.90000000,2085.98000000,2106.61000000,2114.63000000,2114.95000000,2114.30000000,2099.85000000,2078.49000000,2081.20000000,2095.49000000,2085.92000000,2080.89000000,2079.73000000,2073.28000000,2063.96000000,2056.93000000,2047.74000000,2045.61000000,2040.74000000,2028.53000000,2027.05000000,2043.05000000,2053.75000000,2081.67000000,2110.98000000,2135.90000000,2157.84000000,2167.90000000,2159.14000000,2133.64000000,2122.37000000,2133.38000000,2127.02000000,2108.66000000,2107.72000000,2102.51000000,2098.47000000,2124.65000000,2155.32000000,2183.20000000,2213.18000000,2230.33000000,2223.93000000,2220.80000000,2218.58000000,2213.64000000,2209.85000000,2212.27000000,2217.36000000,2228.14000000,2241.24000000,2256.66000000,2268.85000000,2280.00000000,2292.63000000,2305.23000000,2316.42000000,2327.72000000,2340.11000000,2354.03000000,2367.52000000,2383.26000000,2398.70000000,2411.64000000,2427.84000000,2443.09000000,2459.67000000,2481.76000000,2499.80000000,2519.55000000,2541.93000000,2568.67000000,2593.16000000,2615.96000000,2629.92000000,2650.81000000,2661.78000000,2676.99000000,2685.53000000,2685.02000000,2681.57000000,2678.07000000,2668.02000000,2657.80000000,2644.49000000,2634.52000000,2628.33000000,2611.18000000,2597.24000000,2581.76000000,2569.94000000,2553.29000000,2541.38000000,2530.16000000,2516.74000000,2508.13000000,2500.11000000,2488.88000000,2477.06000000,2466.95000000,2458.35000000,2451.82000000,2436.24000000,2417.29000000,2410.43000000,2402.89000000,2400.99000000,2397.01000000,2397.01000000,2396.76000000,2402.00000000,2411.55000000,2420.86000000,2427.56000000,2436.53000000,2453.09000000,2469.50000000,2487.25000000,2503.55000000,2520.80000000,2540.57000000,2563.88000000,2584.11000000,2596.82000000,2595.26000000,2570.78000000,2552.66000000,2533.26000000,2514.34000000,2490.63000000,2462.24000000,2439.53000000,2415.13000000,2390.98000000,2373.34000000,2354.01000000,2337.80000000,2323.27000000,2309.03000000,2295.78000000,2282.68000000,2268.08000000,2253.69000000,2238.82000000,2222.99000000,2212.61000000,2197.56000000,2188.73000000,2175.96000000,2163.79000000,2149.64000000,2137.65000000,2123.34000000,2105.66000000,2094.78000000,2085.24000000,2078.82000000,2071.61000000,2059.76000000,2046.57000000,2041.80000000,2040.54000000,2040.28000000,2037.94000000,2037.52000000,2036.00000000,2033.97000000,2028.81000000,2016.67000000,2001.48000000,1981.18000000,1957.99000000,1942.50000000,1934.06000000,1919.59000000,1908.19000000,1889.38000000,1870.96000000,1851.15000000,1838.96000000,1827.51000000,1817.03000000,1808.05000000,1804.42000000,1799.23000000,1789.90000000,1788.66000000,1798.55000000,1799.46000000,1789.50000000
1695.78000000,1717.64000000,1745.42000000,1770.54000000,1788.90000000,1812.13000000,1830.18000000,1833.29000000,1830.17000000,1824.41000000,1819.60000000,1837.29000000,1882.00000000,1899.39000000,1908.62000000,1915.56000000,1931.08000000,1943.84000000,1962.91000000,1987.60000000,1997.20000000,2015.18000000,2037.99000000,2056.26000000,2071.93000000,2077.43000000,2087.57000000,2087.35000000,2085.86000000,2083.11000000,2067.45000000,2061.95000000,2075.37000000,2068.68000000,2058.80000000,2058.00000000,2055.08000000,2046.91000000,2043.92000000,2032.13000000,2024.92000000,2023.25000000,2013.97000000,2013.21000000,2030.17000000,2044.75000000,2076.16000000,2109.06000000,2135.32000000,2147.48000000,2145.57000000,2140.96000000,2119.60000000,2101.33000000,2113.93000000,2111.32000000,2091.61000000,2086.20000000,2081.73000000,2085.46000000,2112.58000000,2142.47000000,2171.90000000,2202.30000000,2206.27000000,2194.30000000,2190.77000000,2187.73000000,2187.29000000,2191.02000000,2202.91000000,2210.41000000,2226.35000000,2240.49000000,2253.40000000,2265.46000000,2280.31000000,2289.75000000,2300.04000000,2311.99000000,2323.43000000,2335.81000000,2349.38000000,2362.24000000,2374.54000000,2387.69000000,2402.83000000,2417.35000000,2433.03000000,2452.21000000,2471.24000000,2488.74000000,2509.23000000,2529.58000000,2554.29000000,2577.58000000,2596.51000000,2613.04000000,2627.63000000,2640.38000000,2658.08000000,2670.28000000,2672.34000000,2666.12000000,2659.93000000,2649.76000000,2641.07000000,2630.66000000,2621.24000000,2614.46000000,2605.60000000,2590.99000000,2573.70000000,2561.93000000,2549.66000000,2538.53000000,2528.61000000,2519.86000000,2509.93000000,2499.32000000,2491.87000000,2479.51000000,2466.36000000,2457.89000000,2450.24000000,2434.75000000,2412.84000000,2399.03000000,2390.19000000,2386.86000000,2383.61000000,2386.34000000,2385.37000000,2388.67000000,2399.47000000,2407.06000000,2411.24000000,2419.26000000,2438.33000000,2453.57000000,2472.22000000,2490.82000000,2507.93000000,2526.22000000,2550.88000000,2565.58000000,2573.55000000,2571.12000000,2567.40000000,2559.65000000,2540.44000000,2514.50000000,2484.51000000,2451.41000000,2429.87000000,2404.61000000,2383.65000000,2369.57000000,2349.70000000,2336.49000000,2318.72000000,2305.22000000,2291.98000000,2277.10000000,2262.54000000,2248.97000000,2236.47000000,2225.62000000,2214.74000000,2205.17000000,2196.66000000,2182.56000000,2170.69000000,2164.81000000,2151.31000000,2133.01000000,2121.36000000,2111.01000000,2100.17000000,2091.08000000,2084.32000000,2075.20000000,2068.11000000,2062.16000000,2059.28000000,2055.04000000,2049.75000000,2048.89000000,2049.99000000,2051.19000000,2044.43000000,2032.08000000,2007.45000000,1982.74000000,1968.73000000,1955.62000000,1944.14000000,1935.74000000,1927.70000000,1901.62000000,1886.47000000,1873.76000000,1862.81000000,1853.04000000,1840.20000000,1832.81000000,1828.97000000,1822.95000000,1815.23000000,1815.14000000,1821.05000000,1817.08000000,1807.22000000
1680.29000000,1705.61000000,1724.29000000,1746.81000000,1766.55000000,1790.16000000,1808.21000000,1808.64000000,1805.01000000,1792.67000000,1800.79000000,1830.51000000,1867.21000000,1874.64000000,1881.13000000,1891.65000000,1914.12000000,1933.93000000,1951.43000000,1977.58000000,1989.95000000,2003.24000000,2027.41000000,2042.88000000,2047.25000000,2053.41000000,2063.81000000,2063.89000000,2064.89000000,2061.13000000,2050.87000000,2041.32000000,2055.13000000,2051.60000000,2044.97000000,2041.65000000,2033.77000000,2031.64000000,2025.66000000,2017.15000000,2007.53000000,2007.15000000,1999.04000000,1998.64000000,2022.64000000,2041.31000000,2068.26000000,2105.71000000,2125.48000000,2127.45000000,2117.84000000,2115.24000000,2101.63000000,2083.19000000,2087.11000000,2084.32000000,2071.44000000,2067.90000000,2066.86000000,2084.15000000,2116.73000000,2141.53000000,2168.57000000,2183.68000000,2178.76000000,2164.77000000,2161.90000000,2165.65000000,2174.99000000,2186.79000000,2197.87000000,2217.52000000,2231.61000000,2249.13000000,2261.57000000,2274.12000000,2286.53000000,2296.60000000,2308.41000000,2316.93000000,2330.53000000,2340.04000000,2350.36000000,2361.64000000,2373.68000000,2387.33000000,2401.83000000,2413.11000000,2430.91000000,2446.50000000,2465.21000000,2478.89000000,2499.53000000,2524.05000000,2546.35000000,2567.28000000,2585.57000000,2601.17000000,2614.24000000,2631.41000000,2648.25000000,2662.73000000,2662.59000000,2655.64000000,2648.93000000,2639.16000000,2632.55000000,2624.78000000,2617.06000000,2610.53000000,2603.33000000,2590.55000000,2575.38000000,2564.74000000,2555.12000000,2549.40000000,2543.34000000,2537.51000000,2527.37000000,2517.09000000,2497.10000000,2478.42000000,2461.36000000,2443.06000000,2441.48000000,2431.21000000,2410.38000000,2390.78000000,2378.99000000,2376.34000000,2374.77000000,2377.30000000,2375.78000000,2378.15000000,2383.80000000,2390.37000000,2396.59000000,2406.44000000,2420.26000000,2438.86000000,2456.36000000,2476.01000000,2493.52000000,2510.86000000,2533.47000000,2545.12000000,2546.53000000,2544.20000000,2549.12000000,2547.57000000,2534.80000000,2514.59000000,2484.53000000,2452.19000000,2423.38000000,2398.75000000,2377.64000000,2362.85000000,2344.14000000,2330.51000000,2313.97000000,2298.44000000,2286.53000000,2273.73000000,2263.29000000,2250.11000000,2237.47000000,2227.38000000,2217.73000000,2209.85000000,2204.07000000,2192.44000000,2181.66000000,2174.81000000,2162.95000000,2150.08000000,2136.20000000,2126.53000000,2117.37000000,2112.07000000,2104.65000000,2093.92000000,2087.44000000,2083.46000000,2078.90000000,2075.97000000,2070.58000000,2070.06000000,2067.86000000,2068.05000000,2062.41000000,2039.04000000,2011.04000000,1998.50000000,1987.35000000,1968.28000000,1963.96000000,1955.87000000,1940.41000000,1915.69000000,1906.70000000,1893.63000000,1884.56000000,1869.90000000,1858.77000000,1851.76000000,1841.31000000,1834.25000000,1827.89000000,1825.34000000,1829.21000000,1825.08000000,1820.29000000
1663.69000000,1687.07000000,1703.64000000,1725.22000000,1742.02000000,1767.51000000,1783.13000000,1782.09000000,1776.23000000,1766.02000000,1781.54000000,1821.50000000,1841.48000000,1850.65000000,1862.10000000,1883.63000000,1908.75000000,1931.96000000,1949.46000000,1963.06000000,1982.09000000,1996.12000000,2008.88000000,2015.07000000,2019.50000000,2032.45000000,2045.02000000,2048.41000000,2049.36000000,2039.26000000,2030.32000000,2021.18000000,2035.49000000,2037.18000000,2028.64000000,2019.17000000,2015.16000000,2017.41000000,2009.88000000,2000.75000000,1988.08000000,1983.68000000,1974.83000000,1989.66000000,2013.40000000,2032.65000000,2055.31000000,2089.78000000,2108.55000000,2106.41000000,2098.15000000,2096.15000000,2093.57000000,2066.76000000,2056.73000000,2055.41000000,2048.02000000,2051.24000000,2063.92000000,2084.21000000,2104.95000000,2127.78000000,2141.91000000,2146.86000000,2142.45000000,2138.09000000,2148.51000000,2165.81000000,2185.51000000,2197.55000000,2212.14000000,2230.36000000,2246.70000000,2262.99000000,2274.95000000,2288.32000000,2297.34000000,2310.15000000,2323.31000000,2332.13000000,2339.80000000,2348.43000000,2359.18000000,2369.78000000,2384.47000000,2397.04000000,2408.97000000,2422.65000000,2429.59000000,2441.07000000,2459.94000000,2483.20000000,2507.60000000,2530.58000000,2555.99000000,2580.37000000,2598.44000000,2612.62000000,2630.61000000,2641.30000000,2653.51000000,2662.46000000,2660.66000000,2653.54000000,2646.19000000,2638.59000000,2631.66000000,2623.66000000,2616.73000000,2613.59000000,2606.58000000,2597.23000000,2584.52000000,2580.31000000,2575.30000000,2564.49000000,2560.00000000,2558.07000000,2551.99000000,2530.04000000,2504.42000000,2481.75000000,2459.15000000,2442.36000000,2430.50000000,2424.87000000,2410.53000000,2389.96000000,2373.88000000,2367.31000000,2367.34000000,2368.67000000,2366.34000000,2368.23000000,2370.19000000,2373.02000000,2380.58000000,2392.28000000,2407.85000000,2423.56000000,2440.60000000,2458.33000000,2478.38000000,2493.64000000,2512.98000000,2521.73000000,2519.59000000,2521.05000000,2527.84000000,2538.90000000,2519.07000000,2500.49000000,2475.41000000,2446.27000000,2416.55000000,2395.36000000,2375.31000000,2358.96000000,2338.34000000,2322.95000000,2306.65000000,2292.23000000,2279.71000000,2268.20000000,2260.02000000,2249.68000000,2238.73000000,2230.36000000,2226.28000000,2221.03000000,2215.75000000,2205.23000000,2197.33000000,2191.59000000,2184.74000000,2174.63000000,2155.28000000,2149.01000000,2139.56000000,2130.57000000,2126.28000000,2116.44000000,2107.39000000,2098.35000000,2097.60000000,2093.14000000,2089.89000000,2090.70000000,2091.17000000,2084.43000000,2065.88000000,2045.20000000,2031.73000000,2014.84000000,1999.52000000,1992.50000000,1983.16000000,1960.09000000,1942.23000000,1934.63000000,1929.36000000,1913.57000000,1901.55000000,1888.87000000,1876.06000000,1865.69000000,1856.07000000,1845.22000000,1836.52000000,1830.23000000,1834.29000000,1831.38000000,1829.75000000
1655.23000000,1672.39000000,1692.69000000,1714.28000000,1732.94000000,1751.03000000,1761.67000000,1756.56000000,1753.70000000,1751.22000000,1772.19000000,1806.52000000,1820.93000000,1828.08000000,1850.59000000,1880.14000000,1907.05000000,1931.33000000,1944.86000000,1946.68000000,1966.01000000,1988.53000000,1996.77000000,1996.35000000,1997.33000000,2011.16000000,2024.93000000,2030.50000000,2039.87000000,2034.03000000,2022.55000000,2010.31000000,2017.83000000,2026.04000000,2016.42000000,2006.11000000,1999.26000000,2001.96000000,1994.08000000,1984.09000000,1971.32000000,1964.70000000,1967.87000000,1990.02000000,2007.02000000,2028.71000000,2054.56000000,2090.60000000,2095.86000000,2090.00000000,2085.61000000,2074.55000000,2074.15000000,2060.48000000,2040.86000000,2035.39000000,2037.58000000,2047.66000000,2058.72000000,2076.53000000,2093.92000000,2111.33000000,2116.10000000,2118.77000000,2125.91000000,2136.21000000,2154.22000000,2176.88000000,2194.67000000,2209.16000000,2224.74000000,2242.30000000,2259.94000000,2278.00000000,2287.13000000,2298.06000000,2304.60000000,2320.45000000,2332.17000000,2341.43000000,2349.18000000,2358.14000000,2367.76000000,2382.31000000,2396.21000000,2408.21000000,2425.87000000,2435.03000000,2438.48000000,2446.69000000,2469.78000000,2486.16000000,2514.26000000,2538.07000000,2572.94000000,2590.18000000,2610.84000000,2629.03000000,2647.41000000,2656.11000000,2667.60000000,2668.65000000,2664.57000000,2658.02000000,2649.94000000,2640.75000000,2635.72000000,2629.41000000,2625.89000000,2622.01000000,2616.69000000,2608.36000000,2599.84000000,2596.72000000,2591.44000000,2579.97000000,2575.08000000,2576.80000000,2570.38000000,2548.70000000,2515.52000000,2487.59000000,2466.09000000,2445.12000000,2429.92000000,2420.61000000,2407.78000000,2388.64000000,2373.23000000,2362.84000000,2361.99000000,2361.99000000,2359.68000000,2358.49000000,2360.43000000,2365.01000000,2370.22000000,2382.78000000,2395.12000000,2407.82000000,2425.90000000,2443.14000000,2463.26000000,2480.54000000,2495.36000000,2498.99000000,2499.33000000,2506.95000000,2519.82000000,2528.00000000,2509.39000000,2494.32000000,2471.09000000,2441.46000000,2412.78000000,2394.37000000,2372.72000000,2358.97000000,2335.98000000,2320.70000000,2302.71000000,2289.76000000,2280.78000000,2269.63000000,2263.04000000,2254.38000000,2245.82000000,2240.48000000,2237.16000000,2234.10000000,2228.86000000,2220.65000000,2214.94000000,2207.93000000,2199.55000000,2191.91000000,2181.33000000,2173.78000000,2160.49000000,2147.46000000,2140.20000000,2133.09000000,2122.63000000,2115.74000000,2114.64000000,2106.73000000,2102.64000000,2105.80000000,2102.56000000,2094.66000000,2081.16000000,2058.22000000,2045.06000000,2025.92000000,2009.83000000,2003.13000000,1989.57000000,1963.88000000,1958.22000000,1951.07000000,1943.95000000,1931.04000000,1916.50000000,1902.29000000,1891.28000000,1878.10000000,1868.22000000,1859.32000000,1850.83000000,1838.58000000,1837.50000000,1839.65000000,1844.16000000
