2466.66000000,2478.96000000,2492.18000000,2511.47000000,2526.88000000,2544.70000000,2553.43000000,2558.50000000,2556.33000000,2555.43000000,2555.28000000,2558.22000000,2560.13000000,2570.63000000,2577.06000000,2585.76000000,2598.66000000,2619.14000000,2637.14000000,2652.06000000,2666.16000000,2677.18000000,2689.51000000,2695.47000000,2701.88000000,2702.38000000,2704.49000000,2712.55000000,2728.59000000,2745.02000000,2761.70000000,2772.57000000,2762.80000000,2734.86000000,2712.34000000,2691.78000000,2666.39000000,2644.79000000,2626.06000000,2612.34000000,2596.17000000,2578.87000000,2564.64000000,2548.27000000,2542.00000000,2535.76000000,2529.10000000,2522.61000000,2509.13000000,2493.15000000,2474.88000000,2461.43000000,2449.13000000,2431.97000000,2413.14000000,2397.12000000,2376.74000000,2361.22000000,2343.66000000,2328.77000000,2317.44000000,2306.71000000,2295.46000000,2278.76000000,2257.94000000,2249.21000000,2243.95000000,2223.42000000,2197.07000000,2171.82000000,2151.50000000,2129.80000000,2104.29000000,2081.21000000,2059.15000000,2033.90000000,2016.12000000,2003.27000000,1987.42000000,1968.71000000,1947.29000000,1945.77000000,1957.07000000,1960.55000000,1959.61000000,1960.42000000,1964.86000000,1964.51000000,1958.16000000,1946.83000000,1942.52000000,1933.97000000,1929.99000000,1932.49000000,1938.07000000,1949.39000000,1945.39000000,1925.21000000,1900.86000000,1883.10000000,1884.43000000,1888.80000000,1889.35000000,1886.40000000,1886.31000000,1865.16000000,1843.32000000,1820.39000000,1799.05000000,1771.85000000,1749.68000000,1741.61000000,1731.82000000,1702.47000000,1682.71000000,1664.43000000,1654.19000000,1623.96000000,1596.92000000,1579.47000000,1558.00000000,1543.19000000,1528.65000000,1521.20000000,1512.31000000,1502.59000000,1478.29000000,1453.73000000,1431.93000000,1396.91000000,1358.42000000,1321.30000000,1293.33000000,1288.81000000,1298.49000000,1327.24000000,1355.87000000,1382.08000000,1389.49000000,1385.30000000,1378.24000000,1372.83000000,1369.24000000,1368.69000000,1359.33000000,1353.53000000,1348.34000000,1345.81000000,1365.12000000,1380.82000000,1401.64000000,1418.23000000,1438.83000000,1459.32000000,1475.63000000,1493.67000000,1505.58000000,1514.66000000,1528.27000000,1542.17000000,1553.39000000,1560.78000000,1568.14000000,1572.84000000,1580.43000000,1581.92000000,1577.35000000,1566.61000000,1555.19000000,1542.57000000,1534.46000000,1520.99000000,1511.87000000,1502.82000000,1488.69000000,1471.19000000,1456.48000000,1439.24000000,1418.77000000,1404.67000000,1388.47000000,1377.66000000,1391.18000000,1400.90000000,1408.02000000,1420.74000000,1420.75000000,1407.70000000,1394.29000000,1377.49000000,1359.95000000,1340.92000000,1335.88000000,1341.83000000,1339.11000000,1351.83000000,1360.08000000,1367.86000000,1372.02000000,1374.24000000,1376.21000000,1380.19000000,1380.37000000,1377.91000000,1372.99000000,1366.03000000,1357.60000000,1348.09000000,1337.37000000,1327.49000000,1318.76000000,1310.71000000,1295.17000000
2466.09000000,2478.72000000,2489.87000000,2503.65000000,2521.87000000,2535.12000000,2546.76000000,2554.82000000,2562.99000000,2568.51000000,2569.99000000,2572.49000000,2573.48000000,2577.55000000,2587.20000000,2597.95000000,2613.44000000,2632.67000000,2648.86000000,2664.73000000,2674.84000000,2687.63000000,2701.10000000,2708.95000000,2715.11000000,2719.81000000,2720.44000000,2723.54000000,2734.61000000,2747.64000000,2759.73000000,2773.99000000,2755.07000000,2730.50000000,2709.37000000,2686.28000000,2667.78000000,2645.50000000,2625.06000000,2610.20000000,2591.24000000,2573.52000000,2562.68000000,2546.59000000,2536.02000000,2527.50000000,2520.77000000,2511.58000000,2502.62000000,2489.55000000,2475.93000000,2462.96000000,2451.29000000,2431.35000000,2409.80000000,2394.18000000,2375.24000000,2359.91000000,2344.91000000,2328.59000000,2314.02000000,2300.04000000,2289.95000000,2284.97000000,2280.29000000,2271.73000000,2258.46000000,2236.29000000,2208.47000000,2182.56000000,2156.81000000,2138.40000000,2114.09000000,2092.18000000,2066.61000000,2036.98000000,2016.46000000,2002.93000000,1980.62000000,1961.10000000,1956.17000000,1968.12000000,1974.40000000,1980.43000000,1985.49000000,1990.06000000,1993.87000000,1994.27000000,1981.61000000,1970.60000000,1971.76000000,1960.13000000,1959.46000000,1956.67000000,1961.69000000,1970.91000000,1958.52000000,1937.90000000,1914.51000000,1908.53000000,1912.42000000,1915.47000000,1914.93000000,1909.98000000,1898.50000000,1874.10000000,1860.74000000,1839.31000000,1820.30000000,1800.25000000,1780.44000000,1765.16000000,1748.83000000,1726.15000000,1709.58000000,1693.70000000,1674.15000000,1656.34000000,1630.03000000,1601.95000000,1585.89000000,1570.57000000,1552.80000000,1535.96000000,1515.13000000,1497.11000000,1472.21000000,1444.97000000,1417.01000000,1382.84000000,1346.70000000,1320.07000000,1297.65000000,1279.93000000,1291.64000000,1308.79000000,1338.28000000,1360.67000000,1368.03000000,1367.78000000,1365.29000000,1357.64000000,1349.12000000,1348.39000000,1337.57000000,1330.50000000,1337.64000000,1349.31000000,1365.57000000,1382.01000000,1402.31000000,1417.60000000,1433.65000000,1456.74000000,1476.14000000,1496.08000000,1507.54000000,1517.06000000,1530.83000000,1547.17000000,1558.32000000,1563.74000000,1571.22000000,1574.56000000,1575.73000000,1573.16000000,1567.03000000,1556.48000000,1545.93000000,1532.23000000,1519.53000000,1506.66000000,1494.73000000,1488.36000000,1474.08000000,1461.71000000,1443.98000000,1427.83000000,1413.29000000,1402.05000000,1383.60000000,1369.39000000,1372.81000000,1378.24000000,1390.36000000,1400.44000000,1409.36000000,1396.57000000,1378.93000000,1365.78000000,1350.92000000,1332.28000000,1324.35000000,1327.39000000,1327.96000000,1336.38000000,1346.25000000,1350.45000000,1352.73000000,1357.10000000,1359.40000000,1363.20000000,1368.77000000,1370.55000000,1368.19000000,1362.70000000,1354.97000000,1345.71000000,1337.11000000,1328.62000000,1320.73000000,1312.46000000,1298.32000000
2463.52000000,2470.88000000,2481.71000000,2496.71000000,2506.56000000,2522.56000000,2534.33000000,2548.10000000,2557.47000000,2568.48000000,2581.32000000,2587.56000000,2592.09000000,2595.05000000,2603.25000000,2614.65000000,2629.53000000,2643.51000000,2660.48000000,2672.91000000,2684.56000000,2695.86000000,2707.64000000,2716.03000000,2725.76000000,2731.32000000,2734.74000000,2741.20000000,2747.72000000,2754.55000000,2761.72000000,2774.24000000,2757.84000000,2731.11000000,2714.37000000,2699.73000000,2676.21000000,2649.48000000,2627.52000000,2610.20000000,2591.52000000,2572.20000000,2559.06000000,2545.53000000,2533.47000000,2520.16000000,2507.31000000,2500.39000000,2492.01000000,2481.47000000,2472.50000000,2461.17000000,2451.96000000,2430.87000000,2409.53000000,2392.55000000,2374.73000000,2359.76000000,2341.82000000,2328.12000000,2312.03000000,2296.54000000,2285.28000000,2277.10000000,2270.53000000,2265.60000000,2254.65000000,2234.16000000,2209.17000000,2185.53000000,2152.68000000,2132.67000000,2110.29000000,2082.01000000,2057.81000000,2030.73000000,2009.11000000,1996.81000000,1979.88000000,1972.32000000,1980.31000000,1987.29000000,1993.32000000,2004.68000000,2013.96000000,2024.41000000,2021.63000000,2018.74000000,1997.75000000,1998.92000000,2003.30000000,1994.38000000,1994.95000000,1981.66000000,1982.19000000,1992.18000000,1978.53000000,1955.63000000,1942.17000000,1938.37000000,1942.90000000,1943.38000000,1927.92000000,1914.88000000,1889.01000000,1871.18000000,1852.68000000,1837.90000000,1820.95000000,1799.53000000,1774.51000000,1760.74000000,1742.15000000,1718.58000000,1702.35000000,1688.27000000,1674.28000000,1656.05000000,1639.80000000,1615.83000000,1595.65000000,1577.32000000,1556.59000000,1535.30000000,1507.99000000,1485.78000000,1460.13000000,1434.09000000,1409.68000000,1370.44000000,1346.47000000,1318.40000000,1300.51000000,1274.56000000,1278.29000000,1295.71000000,1323.31000000,1339.65000000,1346.54000000,1348.78000000,1343.46000000,1333.47000000,1326.98000000,1327.28000000,1319.10000000,1328.70000000,1342.12000000,1356.70000000,1372.17000000,1386.80000000,1402.24000000,1416.86000000,1430.79000000,1453.54000000,1474.88000000,1495.13000000,1508.43000000,1518.16000000,1532.53000000,1548.83000000,1560.78000000,1564.71000000,1565.93000000,1564.97000000,1560.86000000,1557.81000000,1553.81000000,1544.47000000,1533.63000000,1514.34000000,1505.83000000,1492.00000000,1477.63000000,1465.41000000,1458.02000000,1447.61000000,1428.06000000,1413.39000000,1402.05000000,1392.86000000,1383.22000000,1369.67000000,1353.68000000,1356.08000000,1365.74000000,1380.39000000,1394.31000000,1382.06000000,1369.28000000,1354.34000000,1338.66000000,1322.24000000,1314.02000000,1318.52000000,1320.66000000,1325.44000000,1327.22000000,1328.19000000,1330.02000000,1339.43000000,1348.94000000,1353.22000000,1358.78000000,1362.95000000,1362.00000000,1356.44000000,1345.15000000,1331.94000000,1325.95000000,1323.03000000,1320.82000000,1312.85000000,1300.60000000
2459.15000000,2464.19000000,2473.84000000,2482.82000000,2491.96000000,2506.80000000,2523.02000000,2535.80000000,2546.93000000,2562.78000000,2579.50000000,2597.22000000,2606.40000000,2613.74000000,2622.14000000,2634.34000000,2649.08000000,2657.68000000,2669.32000000,2681.92000000,2688.66000000,2694.64000000,2699.36000000,2712.99000000,2727.01000000,2739.29000000,2747.15000000,2753.49000000,2761.68000000,2766.59000000,2769.39000000,2776.17000000,2762.42000000,2739.55000000,2725.05000000,2703.63000000,2679.64000000,2656.66000000,2633.33000000,2611.69000000,2592.41000000,2574.56000000,2559.90000000,2541.86000000,2528.36000000,2512.64000000,2498.93000000,2489.27000000,2478.01000000,2471.62000000,2461.18000000,2453.06000000,2441.93000000,2426.10000000,2407.72000000,2390.07000000,2374.20000000,2357.51000000,2340.98000000,2326.82000000,2313.14000000,2293.70000000,2279.75000000,2272.84000000,2265.99000000,2262.09000000,2252.53000000,2227.06000000,2206.54000000,2179.06000000,2145.22000000,2120.79000000,2097.28000000,2068.86000000,2044.62000000,2018.16000000,2007.29000000,2003.67000000,2000.94000000,1995.55000000,2003.20000000,2008.11000000,2014.03000000,2026.08000000,2040.26000000,2053.36000000,2053.65000000,2040.67000000,2017.11000000,2026.51000000,2027.13000000,2016.99000000,2026.99000000,2014.33000000,2011.67000000,2012.12000000,2001.45000000,1987.56000000,1973.34000000,1960.30000000,1950.30000000,1932.03000000,1911.64000000,1897.74000000,1873.18000000,1847.28000000,1829.18000000,1813.04000000,1799.54000000,1781.42000000,1761.12000000,1739.97000000,1724.59000000,1704.63000000,1681.12000000,1664.47000000,1654.54000000,1645.02000000,1634.57000000,1613.97000000,1591.48000000,1571.99000000,1546.99000000,1525.48000000,1501.31000000,1481.47000000,1461.41000000,1434.36000000,1407.29000000,1376.52000000,1348.92000000,1316.76000000,1292.64000000,1268.75000000,1262.85000000,1285.11000000,1307.34000000,1329.56000000,1334.11000000,1331.66000000,1324.65000000,1319.49000000,1312.62000000,1305.20000000,1315.48000000,1332.74000000,1350.13000000,1363.08000000,1377.56000000,1389.93000000,1401.38000000,1417.55000000,1430.44000000,1447.13000000,1466.08000000,1485.23000000,1506.51000000,1517.83000000,1532.74000000,1544.83000000,1556.27000000,1555.73000000,1551.58000000,1548.72000000,1547.38000000,1544.29000000,1539.21000000,1533.72000000,1520.89000000,1504.14000000,1490.03000000,1472.96000000,1463.56000000,1454.57000000,1445.31000000,1431.55000000,1414.63000000,1404.23000000,1392.07000000,1381.65000000,1377.92000000,1367.99000000,1355.38000000,1340.65000000,1347.09000000,1365.23000000,1377.53000000,1367.95000000,1356.91000000,1345.47000000,1327.84000000,1312.30000000,1304.26000000,1309.66000000,1313.51000000,1314.20000000,1315.35000000,1316.29000000,1319.55000000,1323.73000000,1333.39000000,1344.46000000,1349.74000000,1352.73000000,1348.82000000,1337.50000000,1323.21000000,1310.66000000,1307.53000000,1309.32000000,1312.60000000,1308.74000000,1296.09000000
2444.61000000,2445.62000000,2456.58000000,2460.33000000,2476.33000000,2492.89000000,2508.16000000,2521.01000000,2536.11000000,2559.57000000,2573.27000000,2590.01000000,2604.39000000,2618.94000000,2631.84000000,2644.62000000,2651.90000000,2658.89000000,2673.29000000,2677.03000000,2678.96000000,2680.47000000,2692.07000000,2710.53000000,2726.95000000,2742.98000000,2754.35000000,2763.14000000,2772.30000000,2780.01000000,2782.10000000,2781.43000000,2764.63000000,2741.70000000,2724.61000000,2699.73000000,2676.32000000,2657.49000000,2637.62000000,2615.30000000,2595.28000000,2579.98000000,2567.57000000,2548.98000000,2533.92000000,2514.79000000,2497.02000000,2482.47000000,2471.37000000,2456.40000000,2442.66000000,2428.62000000,2418.39000000,2411.26000000,2399.63000000,2376.92000000,2354.69000000,2342.19000000,2328.26000000,2310.66000000,2295.28000000,2280.93000000,2265.63000000,2257.70000000,2253.82000000,2247.88000000,2240.70000000,2219.91000000,2192.01000000,2165.64000000,2138.54000000,2109.35000000,2084.77000000,2061.72000000,2037.06000000,2032.07000000,2028.89000000,2021.37000000,2015.09000000,2013.81000000,2019.85000000,2026.26000000,2035.28000000,2049.68000000,2065.27000000,2077.00000000,2069.45000000,2053.91000000,2042.75000000,2055.89000000,2054.82000000,2045.88000000,2053.74000000,2046.17000000,2042.74000000,2039.62000000,2020.11000000,1999.69000000,1978.39000000,1952.32000000,1931.50000000,1912.97000000,1896.51000000,1872.25000000,1854.14000000,1831.27000000,1815.10000000,1791.76000000,1773.14000000,1754.26000000,1742.48000000,1725.50000000,1706.73000000,1684.35000000,1658.36000000,1641.24000000,1635.96000000,1632.83000000,1619.23000000,1603.14000000,1579.85000000,1560.43000000,1537.73000000,1514.90000000,1495.38000000,1476.43000000,1460.46000000,1433.96000000,1403.43000000,1374.59000000,1345.36000000,1315.22000000,1285.13000000,1260.04000000,1253.27000000,1276.47000000,1295.58000000,1316.57000000,1325.72000000,1320.48000000,1314.95000000,1308.59000000,1299.48000000,1299.29000000,1316.45000000,1332.93000000,1349.04000000,1368.07000000,1380.51000000,1390.31000000,1401.37000000,1419.27000000,1430.13000000,1440.73000000,1459.31000000,1474.38000000,1498.89000000,1511.75000000,1529.38000000,1539.23000000,1544.34000000,1539.74000000,1537.56000000,1536.43000000,1531.18000000,1525.16000000,1519.06000000,1515.82000000,1511.54000000,1495.80000000,1485.19000000,1468.49000000,1449.69000000,1441.54000000,1427.68000000,1415.38000000,1404.20000000,1391.60000000,1379.02000000,1370.43000000,1369.76000000,1363.64000000,1350.94000000,1338.32000000,1331.74000000,1350.76000000,1365.06000000,1352.30000000,1339.71000000,1330.04000000,1317.87000000,1305.94000000,1294.36000000,1295.26000000,1300.45000000,1298.63000000,1300.04000000,1301.77000000,1307.88000000,1314.68000000,1322.93000000,1336.38000000,1342.40000000,1342.46000000,1333.14000000,1317.07000000,1304.24000000,1292.10000000,1286.63000000,1287.13000000,1293.75000000,1296.44000000,1291.84000000
2416.01000000,2420.24000000,2430.22000000,2435.38000000,2455.67000000,2477.80000000,2492.06000000,2511.08000000,2526.86000000,2545.38000000,2562.99000000,2579.44000000,2599.78000000,2614.21000000,2623.19000000,2629.31000000,2635.38000000,2643.09000000,2652.18000000,2659.52000000,2658.54000000,2662.96000000,2681.04000000,2700.57000000,2718.60000000,2741.06000000,2759.39000000,2775.33000000,2782.77000000,2788.99000000,2791.95000000,2783.97000000,2769.15000000,2749.56000000,2734.23000000,2706.16000000,2686.34000000,2666.01000000,2646.37000000,2628.35000000,2604.34000000,2591.84000000,2581.21000000,2564.75000000,2546.36000000,2529.08000000,2513.59000000,2495.13000000,2478.33000000,2459.47000000,2438.56000000,2416.14000000,2397.71000000,2383.36000000,2375.50000000,2368.10000000,2346.27000000,2323.82000000,2306.97000000,2295.28000000,2274.28000000,2252.39000000,2239.20000000,2233.52000000,2229.62000000,2222.24000000,2218.76000000,2208.47000000,2189.16000000,2166.63000000,2145.13000000,2109.64000000,2085.66000000,2059.31000000,2046.06000000,2053.28000000,2045.24000000,2038.49000000,2037.31000000,2034.71000000,2039.94000000,2049.80000000,2061.02000000,2073.13000000,2083.14000000,2095.23000000,2088.41000000,2069.02000000,2060.76000000,2067.45000000,2071.95000000,2068.09000000,2073.19000000,2069.80000000,2064.59000000,2052.28000000,2022.92000000,2000.31000000,1974.51000000,1950.35000000,1928.08000000,1910.15000000,1887.29000000,1867.58000000,1850.54000000,1819.88000000,1804.97000000,1782.24000000,1762.84000000,1744.42000000,1726.65000000,1711.29000000,1688.07000000,1672.68000000,1641.73000000,1623.10000000,1607.53000000,1603.23000000,1596.50000000,1584.92000000,1569.98000000,1552.08000000,1531.01000000,1508.36000000,1486.05000000,1468.54000000,1449.93000000,1432.32000000,1402.82000000,1371.43000000,1342.33000000,1314.17000000,1284.62000000,1255.25000000,1246.70000000,1267.13000000,1286.66000000,1303.30000000,1316.94000000,1311.12000000,1301.73000000,1295.71000000,1289.45000000,1298.56000000,1316.20000000,1332.40000000,1350.20000000,1370.12000000,1379.94000000,1388.89000000,1400.37000000,1419.75000000,1430.27000000,1442.10000000,1456.07000000,1469.21000000,1487.03000000,1502.91000000,1512.27000000,1523.80000000,1523.05000000,1520.24000000,1515.62000000,1514.18000000,1511.47000000,1507.12000000,1504.11000000,1501.71000000,1499.43000000,1490.26000000,1482.98000000,1469.59000000,1446.62000000,1430.22000000,1415.03000000,1403.39000000,1390.43000000,1379.65000000,1369.16000000,1359.30000000,1360.59000000,1351.60000000,1342.91000000,1327.82000000,1323.34000000,1340.30000000,1355.98000000,1341.65000000,1325.49000000,1316.42000000,1307.90000000,1298.40000000,1282.95000000,1284.18000000,1290.26000000,1292.27000000,1293.95000000,1295.56000000,1298.74000000,1311.74000000,1319.12000000,1327.69000000,1335.31000000,1330.06000000,1312.99000000,1298.88000000,1284.91000000,1273.40000000,1264.86000000,1268.79000000,1275.66000000,1279.13000000,1278.61000000
2389.13000000,2392.08000000,2400.69000000,2413.28000000,2435.41000000,2455.95000000,2476.81000000,2494.92000000,2512.50000000,2532.66000000,2554.70000000,2573.19000000,2587.12000000,2587.38000000,2593.42000000,2604.87000000,2615.68000000,2623.78000000,2633.42000000,2639.68000000,2641.34000000,2652.70000000,2671.28000000,2692.40000000,2709.15000000,2730.92000000,2751.69000000,2770.53000000,2787.39000000,2796.38000000,2796.32000000,2788.73000000,2778.57000000,2763.97000000,2746.95000000,2725.54000000,2704.21000000,2684.38000000,2660.67000000,2640.16000000,2624.81000000,2611.19000000,2596.14000000,2577.97000000,2558.47000000,2541.77000000,2525.14000000,2511.44000000,2492.56000000,2473.38000000,2452.01000000,2426.85000000,2409.16000000,2388.08000000,2363.02000000,2347.39000000,2339.32000000,2320.91000000,2296.95000000,2278.27000000,2256.00000000,2234.12000000,2221.62000000,2210.01000000,2204.64000000,2200.09000000,2194.11000000,2189.90000000,2178.81000000,2162.57000000,2135.88000000,2103.76000000,2075.97000000,2060.45000000,2066.50000000,2065.20000000,2062.66000000,2060.18000000,2057.03000000,2054.54000000,2059.61000000,2074.52000000,2083.65000000,2094.15000000,2100.27000000,2109.19000000,2100.94000000,2083.80000000,2079.89000000,2079.53000000,2078.83000000,2079.45000000,2081.66000000,2077.81000000,2069.16000000,2055.21000000,2027.45000000,2006.61000000,1985.76000000,1963.60000000,1949.25000000,1928.61000000,1908.08000000,1881.35000000,1856.86000000,1829.77000000,1811.82000000,1793.22000000,1773.47000000,1760.31000000,1742.51000000,1723.26000000,1701.57000000,1681.59000000,1642.76000000,1624.02000000,1594.70000000,1577.39000000,1570.83000000,1557.90000000,1551.70000000,1540.20000000,1524.15000000,1501.94000000,1480.32000000,1458.73000000,1431.68000000,1424.38000000,1402.17000000,1371.53000000,1340.21000000,1310.57000000,1283.86000000,1254.20000000,1238.21000000,1256.40000000,1271.89000000,1293.01000000,1307.61000000,1300.74000000,1290.29000000,1284.86000000,1280.13000000,1294.67000000,1315.50000000,1334.51000000,1352.23000000,1370.04000000,1376.91000000,1385.78000000,1399.65000000,1419.09000000,1430.03000000,1442.23000000,1452.58000000,1462.20000000,1476.65000000,1492.49000000,1502.51000000,1505.30000000,1502.02000000,1496.82000000,1493.23000000,1493.37000000,1491.92000000,1487.29000000,1484.24000000,1483.75000000,1484.84000000,1480.60000000,1474.83000000,1464.45000000,1448.25000000,1423.76000000,1405.84000000,1390.32000000,1379.58000000,1369.90000000,1364.13000000,1350.05000000,1348.73000000,1341.78000000,1327.02000000,1315.11000000,1312.64000000,1327.49000000,1342.93000000,1332.23000000,1314.46000000,1301.68000000,1294.36000000,1282.59000000,1269.36000000,1273.93000000,1279.70000000,1285.23000000,1288.67000000,1290.57000000,1296.55000000,1308.06000000,1316.46000000,1321.66000000,1328.43000000,1314.05000000,1300.45000000,1280.54000000,1267.64000000,1255.75000000,1246.09000000,1250.91000000,1255.38000000,1258.20000000,1258.96000000
2364.43000000,2374.18000000,2384.65000000,2399.17000000,2414.18000000,2441.37000000,2459.45000000,2476.05000000,2498.17000000,2520.32000000,2541.82000000,2559.78000000,2564.45000000,2565.76000000,2570.86000000,2581.31000000,2593.12000000,2603.80000000,2616.52000000,2623.15000000,2628.71000000,2641.92000000,2661.88000000,2681.28000000,2701.58000000,2722.98000000,2747.15000000,2765.07000000,2787.37000000,2801.09000000,2799.86000000,2791.05000000,2781.15000000,2769.94000000,2749.55000000,2726.91000000,2704.88000000,2684.93000000,2667.79000000,2651.70000000,2634.98000000,2612.57000000,2597.38000000,2581.39000000,2563.55000000,2546.43000000,2527.56000000,2512.36000000,2497.30000000,2479.53000000,2464.42000000,2442.53000000,2420.43000000,2405.00000000,2385.69000000,2356.54000000,2332.19000000,2318.50000000,2299.91000000,2276.35000000,2259.34000000,2244.16000000,2231.66000000,2207.63000000,2188.64000000,2175.79000000,2160.02000000,2154.78000000,2148.92000000,2137.05000000,2107.95000000,2087.14000000,2076.84000000,2077.39000000,2085.25000000,2083.74000000,2081.78000000,2080.70000000,2078.60000000,2079.97000000,2082.82000000,2092.64000000,2099.17000000,2109.41000000,2114.51000000,2114.46000000,2106.44000000,2097.80000000,2097.37000000,2088.42000000,2086.58000000,2087.54000000,2084.47000000,2079.35000000,2072.34000000,2061.14000000,2040.96000000,2021.68000000,2001.80000000,1977.21000000,1955.20000000,1932.89000000,1912.98000000,1893.09000000,1861.51000000,1830.22000000,1812.09000000,1792.44000000,1776.25000000,1762.21000000,1743.92000000,1728.05000000,1706.69000000,1682.55000000,1642.69000000,1621.20000000,1595.83000000,1570.01000000,1545.05000000,1535.16000000,1532.59000000,1525.52000000,1513.39000000,1492.16000000,1474.96000000,1449.28000000,1420.09000000,1399.27000000,1379.22000000,1364.63000000,1335.51000000,1306.77000000,1284.75000000,1250.91000000,1230.08000000,1243.72000000,1257.80000000,1275.56000000,1295.31000000,1296.34000000,1288.80000000,1283.69000000,1277.53000000,1288.65000000,1310.44000000,1332.91000000,1346.55000000,1364.36000000,1375.76000000,1387.00000000,1400.88000000,1417.02000000,1427.23000000,1432.76000000,1436.38000000,1450.78000000,1463.55000000,1476.85000000,1483.37000000,1484.66000000,1483.20000000,1481.35000000,1480.44000000,1480.00000000,1475.90000000,1465.40000000,1462.77000000,1463.65000000,1470.55000000,1470.22000000,1465.50000000,1455.19000000,1444.69000000,1426.98000000,1396.62000000,1378.46000000,1366.67000000,1362.80000000,1359.49000000,1340.52000000,1328.24000000,1322.82000000,1314.54000000,1305.80000000,1297.89000000,1314.64000000,1333.21000000,1324.16000000,1304.76000000,1292.45000000,1281.87000000,1271.89000000,1258.82000000,1263.47000000,1268.88000000,1275.16000000,1281.71000000,1286.24000000,1292.99000000,1298.10000000,1309.92000000,1314.02000000,1320.27000000,1306.93000000,1286.78000000,1267.75000000,1255.16000000,1239.64000000,1224.64000000,1221.86000000,1229.67000000,1237.34000000,1238.20000000
2348.31000000,2357.47000000,2371.34000000,2386.25000000,2402.21000000,2420.38000000,2442.26000000,2462.22000000,2481.28000000,2500.59000000,2522.81000000,2540.74000000,2544.76000000,2550.06000000,2554.83000000,2562.28000000,2575.39000000,2587.65000000,2599.22000000,2605.90000000,2614.26000000,2633.41000000,2650.16000000,2671.40000000,2692.61000000,2712.66000000,2735.67000000,2755.91000000,2773.77000000,2791.59000000,2793.19000000,2790.24000000,2779.86000000,2769.60000000,2748.77000000,2731.38000000,2714.39000000,2700.41000000,2681.60000000,2656.63000000,2637.18000000,2630.07000000,2620.15000000,2603.93000000,2582.16000000,2557.75000000,2536.85000000,2518.26000000,2500.79000000,2481.89000000,2462.22000000,2445.43000000,2427.13000000,2407.20000000,2390.40000000,2366.71000000,2343.49000000,2316.89000000,2297.59000000,2291.29000000,2293.03000000,2281.50000000,2261.23000000,2235.20000000,2207.63000000,2191.23000000,2169.33000000,2147.22000000,2130.23000000,2112.51000000,2103.79000000,2101.88000000,2101.18000000,2099.31000000,2103.35000000,2101.55000000,2099.95000000,2097.15000000,2099.20000000,2101.32000000,2108.16000000,2121.77000000,2128.90000000,2133.32000000,2132.31000000,2126.42000000,2118.17000000,2113.94000000,2111.49000000,2099.63000000,2093.18000000,2087.84000000,2079.96000000,2075.26000000,2068.47000000,2061.04000000,2044.85000000,2023.62000000,2005.10000000,1975.57000000,1949.16000000,1918.40000000,1896.85000000,1879.26000000,1853.12000000,1825.59000000,1806.57000000,1784.83000000,1770.78000000,1751.48000000,1736.14000000,1720.65000000,1699.29000000,1684.83000000,1649.96000000,1627.78000000,1603.29000000,1573.30000000,1546.72000000,1520.46000000,1512.50000000,1502.13000000,1494.90000000,1482.89000000,1465.69000000,1437.89000000,1411.52000000,1381.14000000,1362.07000000,1343.00000000,1322.84000000,1294.96000000,1281.07000000,1249.09000000,1227.40000000,1229.60000000,1241.51000000,1261.03000000,1279.50000000,1292.28000000,1287.54000000,1282.22000000,1272.54000000,1287.44000000,1301.65000000,1323.24000000,1339.81000000,1358.16000000,1380.34000000,1392.44000000,1405.14000000,1416.61000000,1417.35000000,1418.71000000,1421.09000000,1433.26000000,1449.90000000,1461.36000000,1466.49000000,1467.75000000,1468.09000000,1466.78000000,1462.65000000,1461.94000000,1458.90000000,1451.98000000,1453.47000000,1455.58000000,1459.86000000,1457.65000000,1451.10000000,1438.44000000,1429.82000000,1418.68000000,1399.63000000,1374.95000000,1357.94000000,1354.19000000,1347.52000000,1331.68000000,1315.34000000,1311.67000000,1300.23000000,1296.14000000,1289.80000000,1303.51000000,1324.22000000,1317.11000000,1298.04000000,1287.46000000,1277.14000000,1266.50000000,1252.18000000,1249.09000000,1253.71000000,1261.01000000,1269.34000000,1280.13000000,1284.04000000,1288.86000000,1297.10000000,1303.04000000,1311.06000000,1303.35000000,1282.68000000,1262.90000000,1250.76000000,1229.26000000,1212.27000000,1199.50000000,1207.63000000,1217.07000000,1218.94000000
2331.99000000,2346.09000000,2358.63000000,2374.03000000,2393.18000000,2406.78000000,2430.89000000,2449.47000000,2464.70000000,2482.86000000,2506.66000000,2517.33000000,2521.98000000,2528.78000000,2538.79000000,2547.93000000,2559.95000000,2573.03000000,2587.10000000,2595.32000000,2609.82000000,2625.46000000,2644.23000000,2664.67000000,2683.87000000,2702.93000000,2720.72000000,2742.43000000,2759.01000000,2773.96000000,2780.88000000,2782.99000000,2780.03000000,2768.08000000,2749.66000000,2737.24000000,2722.69000000,2703.88000000,2684.32000000,2665.07000000,2655.78000000,2648.25000000,2634.32000000,2609.67000000,2589.43000000,2569.23000000,2547.89000000,2529.74000000,2509.29000000,2488.37000000,2466.32000000,2450.77000000,2426.33000000,2403.68000000,2383.84000000,2366.61000000,2351.63000000,2330.76000000,2318.00000000,2320.94000000,2310.17000000,2292.52000000,2270.52000000,2252.44000000,2233.35000000,2213.91000000,2193.25000000,2175.76000000,2155.19000000,2136.55000000,2129.66000000,2127.00000000,2120.82000000,2117.49000000,2121.11000000,2121.27000000,2118.44000000,2116.86000000,2117.97000000,2120.47000000,2126.11000000,2133.74000000,2147.68000000,2156.60000000,2154.98000000,2148.99000000,2139.45000000,2126.53000000,2111.71000000,2104.32000000,2095.05000000,2083.33000000,2068.60000000,2057.92000000,2051.31000000,2055.34000000,2047.07000000,2030.07000000,2008.46000000,1980.48000000,1958.22000000,1930.48000000,1906.68000000,1878.48000000,1854.24000000,1830.98000000,1818.70000000,1800.74000000,1775.65000000,1757.66000000,1739.45000000,1721.83000000,1709.00000000,1693.85000000,1665.17000000,1641.91000000,1613.41000000,1581.46000000,1548.48000000,1520.55000000,1490.65000000,1481.29000000,1470.25000000,1466.81000000,1444.23000000,1419.94000000,1397.27000000,1371.29000000,1345.58000000,1325.43000000,1301.63000000,1287.20000000,1272.86000000,1257.63000000,1234.20000000,1216.20000000,1225.01000000,1247.82000000,1264.05000000,1283.39000000,1279.90000000,1278.58000000,1265.56000000,1281.14000000,1299.22000000,1325.60000000,1343.22000000,1361.69000000,1384.52000000,1402.57000000,1411.51000000,1408.28000000,1403.31000000,1406.73000000,1410.75000000,1420.99000000,1435.74000000,1444.98000000,1448.66000000,1450.99000000,1454.67000000,1455.97000000,1445.17000000,1447.63000000,1446.48000000,1445.90000000,1447.19000000,1446.72000000,1445.35000000,1437.78000000,1431.84000000,1425.14000000,1418.13000000,1408.92000000,1392.45000000,1364.28000000,1351.82000000,1344.54000000,1335.86000000,1323.57000000,1309.11000000,1295.10000000,1287.23000000,1286.41000000,1278.63000000,1299.81000000,1314.98000000,1310.94000000,1294.80000000,1284.95000000,1274.72000000,1262.55000000,1246.74000000,1236.17000000,1242.50000000,1248.94000000,1259.70000000,1266.49000000,1268.37000000,1277.78000000,1282.26000000,1289.24000000,1299.99000000,1300.97000000,1280.95000000,1259.92000000,1247.10000000,1225.36000000,1206.53000000,1183.12000000,1184.80000000,1194.77000000,1202.52000000
2318.00000000,2332.88000000,2350.29000000,2363.90000000,2381.69000000,2398.25000000,2413.89000000,2432.84000000,2447.52000000,2466.65000000,2482.92000000,2492.92000000,2502.69000000,2513.45000000,2526.07000000,2537.80000000,2548.47000000,2563.16000000,2575.70000000,2586.93000000,2606.59000000,2620.10000000,2637.61000000,2659.33000000,2676.23000000,2694.26000000,2709.45000000,2728.45000000,2743.28000000,2752.46000000,2763.09000000,2769.70000000,2775.66000000,2766.31000000,2748.57000000,2738.05000000,2725.07000000,2707.73000000,2687.45000000,2675.23000000,2670.11000000,2651.64000000,2639.96000000,2624.97000000,2609.10000000,2592.03000000,2563.02000000,2537.88000000,2519.23000000,2495.22000000,2467.49000000,2453.22000000,2430.77000000,2415.07000000,2387.40000000,2372.11000000,2356.76000000,2347.03000000,2336.47000000,2337.43000000,2321.45000000,2297.09000000,2275.45000000,2259.57000000,2247.44000000,2221.49000000,2207.31000000,2202.16000000,2182.57000000,2165.66000000,2155.65000000,2151.84000000,2143.82000000,2139.88000000,2140.94000000,2137.61000000,2130.72000000,2122.71000000,2120.24000000,2118.00000000,2122.99000000,2127.05000000,2138.52000000,2147.25000000,2159.06000000,2148.50000000,2140.60000000,2134.01000000,2115.30000000,2100.92000000,2079.59000000,2062.49000000,2049.07000000,2043.49000000,2041.26000000,2045.54000000,2040.16000000,2025.86000000,2008.14000000,1981.13000000,1957.28000000,1929.49000000,1908.85000000,1890.81000000,1868.98000000,1844.73000000,1826.32000000,1807.04000000,1785.33000000,1769.91000000,1749.82000000,1729.88000000,1718.77000000,1697.01000000,1661.96000000,1637.80000000,1614.38000000,1587.20000000,1547.80000000,1522.59000000,1492.23000000,1468.70000000,1445.13000000,1433.30000000,1411.67000000,1394.73000000,1377.44000000,1356.11000000,1337.41000000,1328.51000000,1325.28000000,1306.07000000,1280.40000000,1260.39000000,1241.62000000,1216.68000000,1210.64000000,1235.05000000,1253.52000000,1269.89000000,1272.83000000,1268.95000000,1253.00000000,1271.63000000,1301.70000000,1329.63000000,1347.09000000,1370.86000000,1389.01000000,1404.18000000,1408.94000000,1401.57000000,1391.63000000,1396.30000000,1392.27000000,1408.50000000,1420.40000000,1426.68000000,1428.07000000,1427.34000000,1433.70000000,1436.51000000,1426.91000000,1432.72000000,1440.28000000,1440.71000000,1438.71000000,1437.27000000,1430.95000000,1424.19000000,1420.64000000,1410.00000000,1404.95000000,1397.87000000,1378.68000000,1363.80000000,1349.38000000,1333.62000000,1325.58000000,1317.74000000,1303.83000000,1286.08000000,1273.01000000,1269.22000000,1275.72000000,1295.01000000,1304.48000000,1301.12000000,1293.93000000,1285.25000000,1275.69000000,1260.16000000,1244.04000000,1225.30000000,1226.81000000,1235.73000000,1246.20000000,1249.81000000,1256.57000000,1262.29000000,1269.97000000,1279.15000000,1291.90000000,1294.82000000,1277.22000000,1259.70000000,1236.49000000,1215.82000000,1197.16000000,1172.41000000,1165.92000000,1178.44000000,1186.99000000
2305.88000000,2322.24000000,2341.78000000,2356.61000000,2371.99000000,2387.64000000,2403.83000000,2419.61000000,2436.01000000,2450.51000000,2464.32000000,2474.90000000,2486.85000000,2500.53000000,2515.99000000,2529.76000000,2541.96000000,2554.87000000,2570.30000000,2583.46000000,2603.79000000,2618.97000000,2634.96000000,2654.28000000,2669.57000000,2685.51000000,2699.73000000,2712.70000000,2725.90000000,2737.47000000,2746.09000000,2758.26000000,2766.25000000,2764.79000000,2746.83000000,2735.28000000,2723.86000000,2711.31000000,2693.97000000,2687.22000000,2684.91000000,2671.35000000,2658.48000000,2638.46000000,2616.78000000,2592.52000000,2570.30000000,2543.98000000,2526.60000000,2500.67000000,2471.31000000,2459.47000000,2442.00000000,2426.28000000,2409.12000000,2391.89000000,2374.94000000,2359.80000000,2345.24000000,2329.66000000,2317.54000000,2300.73000000,2284.91000000,2274.87000000,2254.49000000,2228.26000000,2215.64000000,2203.62000000,2188.36000000,2176.71000000,2166.99000000,2158.22000000,2148.45000000,2133.81000000,2127.05000000,2118.49000000,2113.53000000,2108.26000000,2101.08000000,2101.22000000,2106.78000000,2109.75000000,2123.48000000,2129.35000000,2141.43000000,2141.94000000,2133.35000000,2130.98000000,2112.90000000,2092.47000000,2064.74000000,2050.36000000,2028.83000000,2022.98000000,2023.50000000,2027.43000000,2020.40000000,2015.52000000,2001.45000000,1980.28000000,1959.27000000,1940.58000000,1922.38000000,1893.20000000,1865.65000000,1839.92000000,1822.66000000,1802.79000000,1784.56000000,1771.38000000,1751.03000000,1732.97000000,1720.31000000,1699.48000000,1660.35000000,1634.76000000,1612.34000000,1589.13000000,1554.53000000,1534.07000000,1504.64000000,1482.52000000,1458.32000000,1432.10000000,1409.54000000,1386.91000000,1370.83000000,1369.69000000,1363.71000000,1359.75000000,1356.19000000,1335.11000000,1297.45000000,1266.66000000,1242.82000000,1219.50000000,1204.74000000,1223.20000000,1241.29000000,1256.44000000,1256.05000000,1244.63000000,1240.29000000,1271.58000000,1306.08000000,1332.33000000,1355.63000000,1377.15000000,1388.48000000,1392.50000000,1395.27000000,1384.31000000,1382.50000000,1381.01000000,1384.48000000,1398.69000000,1407.29000000,1409.97000000,1407.56000000,1406.45000000,1413.72000000,1412.55000000,1412.10000000,1424.89000000,1433.14000000,1432.34000000,1424.82000000,1422.63000000,1417.85000000,1411.54000000,1405.94000000,1391.58000000,1385.41000000,1379.87000000,1367.86000000,1359.59000000,1350.54000000,1325.64000000,1315.38000000,1307.90000000,1297.13000000,1281.62000000,1262.37000000,1256.96000000,1269.98000000,1281.76000000,1287.81000000,1291.00000000,1295.30000000,1287.61000000,1277.32000000,1257.45000000,1241.64000000,1221.36000000,1212.26000000,1224.41000000,1232.06000000,1237.56000000,1245.43000000,1251.07000000,1261.79000000,1277.92000000,1290.75000000,1288.28000000,1270.49000000,1249.22000000,1227.38000000,1206.29000000,1186.32000000,1168.54000000,1151.55000000,1158.43000000,1168.71000000
2298.26000000,2314.33000000,2330.46000000,2347.95000000,2363.68000000,2376.68000000,2394.32000000,2410.28000000,2423.33000000,2435.47000000,2446.83000000,2462.41000000,2476.95000000,2493.00000000,2508.02000000,2523.91000000,2537.58000000,2548.04000000,2564.65000000,2579.64000000,2599.66000000,2617.20000000,2633.87000000,2649.32000000,2663.90000000,2675.61000000,2687.96000000,2697.90000000,2710.35000000,2720.47000000,2734.02000000,2742.64000000,2753.73000000,2761.36000000,2746.22000000,2732.40000000,2723.68000000,2715.65000000,2702.57000000,2692.56000000,2687.99000000,2678.38000000,2663.82000000,2638.96000000,2616.75000000,2591.36000000,2569.10000000,2544.83000000,2530.14000000,2507.44000000,2480.34000000,2465.24000000,2452.14000000,2432.72000000,2417.58000000,2403.70000000,2383.68000000,2364.40000000,2350.81000000,2329.96000000,2312.73000000,2301.64000000,2289.65000000,2278.72000000,2251.03000000,2226.10000000,2212.98000000,2198.18000000,2176.96000000,2161.12000000,2157.50000000,2150.93000000,2133.20000000,2117.83000000,2102.38000000,2097.07000000,2095.50000000,2092.70000000,2085.03000000,2084.10000000,2085.52000000,2092.80000000,2102.26000000,2111.55000000,2130.66000000,2134.14000000,2121.86000000,2109.88000000,2100.83000000,2079.56000000,2052.78000000,2026.16000000,2008.25000000,2002.11000000,2006.33000000,2008.77000000,2004.38000000,2004.28000000,1991.57000000,1976.32000000,1955.36000000,1934.30000000,1906.44000000,1880.23000000,1853.57000000,1830.40000000,1813.99000000,1794.24000000,1780.66000000,1765.50000000,1749.41000000,1739.92000000,1724.21000000,1713.21000000,1677.81000000,1653.37000000,1618.73000000,1591.45000000,1552.78000000,1531.33000000,1507.05000000,1483.78000000,1462.64000000,1446.61000000,1430.50000000,1417.45000000,1402.07000000,1389.06000000,1382.49000000,1382.92000000,1382.08000000,1353.66000000,1305.70000000,1271.45000000,1242.80000000,1221.56000000,1197.99000000,1209.90000000,1230.18000000,1239.08000000,1235.87000000,1231.38000000,1239.98000000,1272.69000000,1303.65000000,1331.25000000,1355.57000000,1368.34000000,1371.78000000,1374.39000000,1377.74000000,1372.43000000,1372.12000000,1368.20000000,1372.42000000,1385.82000000,1393.29000000,1396.65000000,1394.42000000,1386.85000000,1393.12000000,1388.73000000,1403.48000000,1414.53000000,1422.41000000,1423.54000000,1409.74000000,1406.38000000,1404.62000000,1397.78000000,1391.33000000,1380.15000000,1369.58000000,1363.04000000,1350.21000000,1348.12000000,1347.14000000,1333.54000000,1311.83000000,1295.00000000,1286.07000000,1272.07000000,1253.98000000,1250.01000000,1262.83000000,1273.53000000,1281.18000000,1289.83000000,1293.16000000,1286.68000000,1274.82000000,1252.93000000,1236.19000000,1214.95000000,1201.32000000,1211.02000000,1218.08000000,1227.39000000,1231.87000000,1244.47000000,1261.59000000,1276.70000000,1287.97000000,1278.50000000,1260.58000000,1240.78000000,1216.47000000,1198.85000000,1178.96000000,1161.11000000,1141.93000000,1134.66000000,1147.60000000
2294.48000000,2307.24000000,2318.99000000,2333.15000000,2349.77000000,2363.26000000,2378.50000000,2392.42000000,2409.59000000,2426.09000000,2440.74000000,2459.29000000,2477.94000000,2490.61000000,2502.40000000,2520.59000000,2530.14000000,2542.32000000,2559.34000000,2575.90000000,2593.86000000,2612.82000000,2628.03000000,2642.32000000,2653.61000000,2664.19000000,2674.87000000,2684.32000000,2691.43000000,2703.51000000,2714.22000000,2728.71000000,2739.35000000,2748.96000000,2742.78000000,2728.11000000,2723.02000000,2720.56000000,2718.58000000,2698.02000000,2683.76000000,2671.89000000,2658.21000000,2639.88000000,2621.50000000,2597.69000000,2574.76000000,2551.66000000,2534.36000000,2514.14000000,2488.48000000,2472.85000000,2459.49000000,2437.09000000,2417.46000000,2404.02000000,2390.43000000,2369.54000000,2352.81000000,2331.30000000,2313.55000000,2300.51000000,2277.53000000,2261.64000000,2246.63000000,2228.86000000,2218.77000000,2199.55000000,2171.26000000,2150.52000000,2133.67000000,2126.00000000,2114.14000000,2099.63000000,2081.84000000,2074.23000000,2072.34000000,2070.08000000,2061.78000000,2058.91000000,2056.88000000,2063.46000000,2078.36000000,2088.81000000,2113.97000000,2118.39000000,2101.95000000,2086.24000000,2077.53000000,2062.14000000,2034.19000000,2007.85000000,1989.77000000,1979.51000000,1981.91000000,1986.76000000,1988.50000000,1989.76000000,1981.91000000,1964.05000000,1939.03000000,1923.65000000,1902.32000000,1878.50000000,1848.04000000,1815.43000000,1801.78000000,1784.46000000,1770.11000000,1755.10000000,1744.29000000,1739.84000000,1729.62000000,1717.76000000,1692.08000000,1660.80000000,1632.67000000,1594.71000000,1561.54000000,1533.64000000,1511.22000000,1492.42000000,1472.16000000,1456.45000000,1444.68000000,1434.34000000,1423.96000000,1413.47000000,1403.11000000,1402.35000000,1388.55000000,1358.88000000,1309.80000000,1274.71000000,1243.91000000,1222.56000000,1198.96000000,1192.85000000,1210.78000000,1224.83000000,1223.47000000,1225.12000000,1240.32000000,1271.59000000,1300.61000000,1327.10000000,1348.50000000,1357.05000000,1355.56000000,1357.57000000,1360.36000000,1358.72000000,1358.93000000,1352.18000000,1359.78000000,1367.87000000,1374.31000000,1378.00000000,1374.86000000,1369.61000000,1367.19000000,1376.61000000,1393.10000000,1404.03000000,1407.97000000,1406.80000000,1396.85000000,1386.87000000,1382.81000000,1381.61000000,1377.66000000,1369.52000000,1357.01000000,1345.42000000,1329.52000000,1327.80000000,1331.83000000,1328.88000000,1315.67000000,1294.28000000,1275.79000000,1263.25000000,1245.52000000,1238.40000000,1251.76000000,1267.42000000,1284.82000000,1291.01000000,1291.41000000,1284.76000000,1267.49000000,1245.51000000,1227.67000000,1206.06000000,1187.64000000,1200.18000000,1205.79000000,1215.53000000,1226.87000000,1244.96000000,1260.08000000,1263.48000000,1267.29000000,1269.38000000,1251.47000000,1236.46000000,1217.05000000,1198.02000000,1177.57000000,1157.78000000,1135.08000000,1115.64000000,1126.76000000
2293.74000000,2304.18000000,2313.60000000,2324.65000000,2340.37000000,2357.40000000,2374.52000000,2390.40000000,2409.48000000,2430.68000000,2447.18000000,2461.61000000,2476.89000000,2491.65000000,2503.43000000,2517.24000000,2526.26000000,2537.70000000,2557.46000000,2571.55000000,2586.84000000,2603.55000000,2618.42000000,2629.12000000,2634.27000000,2643.16000000,2658.64000000,2669.12000000,2677.61000000,2686.24000000,2700.23000000,2708.95000000,2724.22000000,2740.66000000,2739.37000000,2724.84000000,2723.69000000,2723.01000000,2723.38000000,2704.39000000,2683.15000000,2670.94000000,2657.47000000,2639.72000000,2623.26000000,2602.52000000,2585.55000000,2565.27000000,2543.87000000,2523.54000000,2498.36000000,2481.22000000,2463.84000000,2440.33000000,2421.24000000,2404.94000000,2390.22000000,2374.50000000,2355.60000000,2335.41000000,2321.78000000,2306.57000000,2288.11000000,2264.05000000,2247.64000000,2230.24000000,2207.47000000,2183.46000000,2159.03000000,2142.54000000,2125.98000000,2114.13000000,2102.32000000,2087.77000000,2076.75000000,2065.91000000,2053.01000000,2042.09000000,2037.84000000,2034.02000000,2031.43000000,2037.21000000,2061.22000000,2071.11000000,2088.56000000,2103.93000000,2089.27000000,2062.67000000,2051.00000000,2039.62000000,2011.03000000,1992.77000000,1973.03000000,1955.20000000,1955.58000000,1960.76000000,1973.39000000,1973.31000000,1967.22000000,1948.37000000,1929.24000000,1908.29000000,1892.76000000,1869.25000000,1840.52000000,1803.74000000,1785.02000000,1766.93000000,1753.72000000,1744.59000000,1737.78000000,1730.46000000,1725.13000000,1713.54000000,1685.72000000,1655.19000000,1633.16000000,1599.05000000,1565.16000000,1536.69000000,1521.00000000,1505.38000000,1483.99000000,1467.39000000,1455.23000000,1446.39000000,1440.68000000,1437.26000000,1433.02000000,1425.30000000,1393.67000000,1360.62000000,1316.79000000,1276.29000000,1247.43000000,1226.05000000,1205.11000000,1189.27000000,1190.81000000,1208.64000000,1218.69000000,1218.70000000,1238.42000000,1265.91000000,1294.98000000,1319.25000000,1334.08000000,1340.91000000,1340.58000000,1339.64000000,1342.31000000,1340.51000000,1341.21000000,1335.03000000,1343.74000000,1351.16000000,1356.08000000,1361.26000000,1358.13000000,1348.74000000,1352.53000000,1372.01000000,1381.64000000,1387.94000000,1390.52000000,1388.96000000,1382.37000000,1371.05000000,1367.74000000,1365.74000000,1360.66000000,1355.08000000,1349.30000000,1337.44000000,1322.26000000,1310.03000000,1307.78000000,1308.65000000,1307.71000000,1293.32000000,1274.93000000,1259.06000000,1246.43000000,1226.81000000,1234.28000000,1256.61000000,1278.58000000,1290.30000000,1287.42000000,1274.60000000,1256.00000000,1236.74000000,1217.39000000,1198.76000000,1180.02000000,1182.08000000,1190.26000000,1205.22000000,1221.24000000,1237.10000000,1242.09000000,1247.47000000,1260.36000000,1260.09000000,1242.08000000,1222.83000000,1208.64000000,1188.72000000,1169.21000000,1150.31000000,1129.30000000,1107.83000000,1109.64000000
2293.92000000,2302.94000000,2311.71000000,2325.16000000,2342.89000000,2367.22000000,2390.76000000,2403.38000000,2415.77000000,2432.33000000,2450.70000000,2465.76000000,2481.22000000,2490.17000000,2501.61000000,2508.83000000,2520.45000000,2534.12000000,2553.16000000,2565.30000000,2577.28000000,2590.75000000,2605.31000000,2616.35000000,2623.03000000,2629.76000000,2640.40000000,2652.13000000,2664.08000000,2673.64000000,2684.73000000,2697.70000000,2711.84000000,2734.70000000,2738.04000000,2725.83000000,2729.41000000,2724.51000000,2724.25000000,2708.31000000,2684.03000000,2670.42000000,2659.43000000,2642.38000000,2631.82000000,2625.97000000,2608.00000000,2577.45000000,2554.83000000,2531.85000000,2507.45000000,2487.49000000,2468.06000000,2447.23000000,2427.93000000,2406.21000000,2381.04000000,2365.25000000,2350.14000000,2334.95000000,2319.54000000,2308.69000000,2293.88000000,2263.52000000,2233.58000000,2208.34000000,2186.97000000,2167.69000000,2154.59000000,2142.27000000,2140.58000000,2129.16000000,2111.27000000,2103.81000000,2097.81000000,2082.53000000,2064.89000000,2050.28000000,2034.24000000,2020.14000000,2009.03000000,2016.25000000,2042.39000000,2054.72000000,2071.71000000,2081.49000000,2071.72000000,2050.28000000,2028.33000000,2018.33000000,2000.86000000,1972.87000000,1953.68000000,1940.08000000,1924.89000000,1941.87000000,1958.86000000,1946.45000000,1940.79000000,1928.18000000,1910.93000000,1892.98000000,1875.99000000,1859.03000000,1822.06000000,1790.34000000,1773.50000000,1752.08000000,1738.69000000,1730.95000000,1725.15000000,1721.84000000,1720.54000000,1713.35000000,1682.28000000,1651.73000000,1629.80000000,1607.25000000,1581.19000000,1554.24000000,1537.42000000,1533.41000000,1510.74000000,1485.33000000,1473.29000000,1465.64000000,1459.52000000,1456.68000000,1450.52000000,1430.73000000,1398.30000000,1360.99000000,1323.84000000,1285.27000000,1257.20000000,1235.74000000,1211.97000000,1194.11000000,1179.86000000,1186.67000000,1208.78000000,1205.79000000,1234.67000000,1259.74000000,1286.72000000,1309.91000000,1321.15000000,1325.34000000,1324.47000000,1329.15000000,1329.43000000,1324.04000000,1323.36000000,1320.35000000,1327.22000000,1331.36000000,1334.07000000,1339.68000000,1336.30000000,1326.31000000,1347.15000000,1363.78000000,1372.12000000,1370.38000000,1370.59000000,1369.57000000,1366.33000000,1357.89000000,1349.82000000,1346.93000000,1342.24000000,1341.56000000,1344.86000000,1341.49000000,1324.53000000,1304.88000000,1288.89000000,1290.60000000,1291.97000000,1281.27000000,1269.74000000,1256.22000000,1240.09000000,1219.28000000,1226.61000000,1242.96000000,1264.20000000,1275.13000000,1269.49000000,1260.98000000,1243.98000000,1225.19000000,1208.03000000,1191.97000000,1172.77000000,1166.55000000,1179.40000000,1194.90000000,1211.09000000,1222.86000000,1230.72000000,1240.45000000,1257.85000000,1254.36000000,1235.68000000,1215.65000000,1198.80000000,1177.45000000,1163.04000000,1140.30000000,1119.75000000,1097.59000000,1091.92000000
2291.49000000,2299.72000000,2311.71000000,2325.45000000,2343.50000000,2365.58000000,2385.33000000,2404.74000000,2425.12000000,2437.52000000,2449.01000000,2463.22000000,2476.52000000,2483.77000000,2490.86000000,2498.49000000,2508.08000000,2524.93000000,2543.15000000,2553.46000000,2562.46000000,2573.34000000,2587.03000000,2601.87000000,2612.41000000,2619.51000000,2627.82000000,2640.46000000,2651.30000000,2662.46000000,2676.64000000,2691.53000000,2708.06000000,2728.97000000,2734.19000000,2729.37000000,2733.45000000,2727.47000000,2721.11000000,2704.73000000,2691.64000000,2681.40000000,2670.45000000,2653.71000000,2657.01000000,2670.16000000,2618.47000000,2596.35000000,2564.95000000,2538.43000000,2519.64000000,2496.62000000,2470.93000000,2447.86000000,2425.27000000,2404.03000000,2379.44000000,2359.10000000,2343.35000000,2325.75000000,2301.65000000,2279.03000000,2263.01000000,2248.82000000,2225.44000000,2201.98000000,2182.44000000,2173.10000000,2169.47000000,2168.44000000,2158.19000000,2142.54000000,2141.95000000,2127.64000000,2113.22000000,2099.62000000,2076.97000000,2058.03000000,2044.32000000,2028.22000000,2003.63000000,1994.23000000,2022.63000000,2037.43000000,2051.59000000,2056.39000000,2051.70000000,2038.54000000,2013.55000000,1995.98000000,1992.09000000,1960.28000000,1936.49000000,1916.28000000,1905.50000000,1926.89000000,1928.26000000,1910.29000000,1909.16000000,1901.86000000,1889.38000000,1871.09000000,1853.86000000,1836.61000000,1797.94000000,1772.83000000,1757.13000000,1739.01000000,1726.34000000,1714.60000000,1709.90000000,1710.92000000,1713.27000000,1715.30000000,1706.68000000,1682.45000000,1644.01000000,1625.32000000,1612.33000000,1586.55000000,1564.05000000,1560.83000000,1540.39000000,1512.61000000,1496.59000000,1490.27000000,1475.32000000,1459.72000000,1445.18000000,1427.38000000,1400.49000000,1360.89000000,1330.78000000,1298.07000000,1273.23000000,1247.97000000,1223.39000000,1199.50000000,1184.02000000,1174.54000000,1185.11000000,1198.65000000,1227.53000000,1251.28000000,1277.71000000,1296.80000000,1308.60000000,1311.23000000,1311.80000000,1317.83000000,1317.51000000,1312.37000000,1311.96000000,1311.74000000,1312.57000000,1314.15000000,1316.23000000,1317.01000000,1311.97000000,1318.82000000,1338.82000000,1351.74000000,1357.35000000,1354.47000000,1353.11000000,1352.27000000,1349.45000000,1339.62000000,1331.14000000,1330.01000000,1325.86000000,1326.50000000,1336.53000000,1340.71000000,1329.87000000,1307.37000000,1281.84000000,1270.40000000,1266.81000000,1257.44000000,1253.04000000,1245.38000000,1233.17000000,1211.64000000,1218.47000000,1237.24000000,1256.98000000,1266.77000000,1253.80000000,1245.05000000,1233.09000000,1215.26000000,1195.89000000,1181.32000000,1163.05000000,1152.63000000,1167.69000000,1182.70000000,1201.41000000,1212.97000000,1223.68000000,1236.91000000,1253.41000000,1244.47000000,1224.10000000,1210.35000000,1197.44000000,1172.39000000,1153.54000000,1133.01000000,1109.26000000,1093.32000000,1076.44000000
2289.06000000,2299.81000000,2312.11000000,2325.73000000,2341.55000000,2359.39000000,2384.44000000,2404.92000000,2425.12000000,2441.82000000,2448.09000000,2456.78000000,2467.21000000,2476.77000000,2484.17000000,2490.24000000,2499.36000000,2514.85000000,2530.45000000,2538.15000000,2544.07000000,2558.59000000,2571.59000000,2586.36000000,2595.88000000,2608.76000000,2622.57000000,2634.17000000,2644.98000000,2659.43000000,2675.77000000,2690.15000000,2708.22000000,2725.07000000,2733.11000000,2737.84000000,2737.40000000,2728.22000000,2715.65000000,2700.17000000,2692.28000000,2678.42000000,2670.25000000,2660.14000000,2652.24000000,2660.41000000,2616.39000000,2594.62000000,2568.73000000,2548.26000000,2527.32000000,2503.55000000,2468.35000000,2447.85000000,2418.16000000,2393.91000000,2375.66000000,2350.47000000,2331.30000000,2310.49000000,2292.06000000,2271.38000000,2253.68000000,2233.52000000,2214.61000000,2208.00000000,2198.43000000,2198.11000000,2198.64000000,2185.85000000,2169.98000000,2169.18000000,2165.43000000,2147.85000000,2130.28000000,2109.79000000,2087.58000000,2063.37000000,2046.93000000,2023.45000000,1999.58000000,1981.29000000,1995.15000000,2018.98000000,2033.51000000,2038.45000000,2025.14000000,2029.04000000,2005.81000000,1978.64000000,1962.58000000,1950.64000000,1924.30000000,1897.46000000,1886.75000000,1898.27000000,1896.92000000,1883.10000000,1882.98000000,1877.56000000,1860.09000000,1844.04000000,1825.64000000,1809.72000000,1778.57000000,1756.34000000,1741.39000000,1725.58000000,1716.78000000,1703.23000000,1697.91000000,1697.89000000,1700.64000000,1709.86000000,1712.08000000,1700.85000000,1669.68000000,1643.92000000,1624.92000000,1601.14000000,1583.03000000,1582.30000000,1560.25000000,1528.71000000,1512.45000000,1492.83000000,1471.15000000,1449.44000000,1434.86000000,1417.03000000,1393.48000000,1362.69000000,1336.33000000,1312.22000000,1297.11000000,1272.37000000,1244.60000000,1214.19000000,1188.67000000,1169.21000000,1175.34000000,1194.24000000,1220.39000000,1241.36000000,1263.72000000,1281.67000000,1296.25000000,1299.34000000,1300.22000000,1305.47000000,1306.96000000,1299.29000000,1297.39000000,1296.78000000,1297.98000000,1298.22000000,1299.85000000,1301.54000000,1296.76000000,1311.34000000,1328.26000000,1338.29000000,1338.14000000,1337.34000000,1334.99000000,1329.52000000,1327.23000000,1318.66000000,1314.80000000,1316.92000000,1317.13000000,1318.61000000,1326.81000000,1333.91000000,1328.02000000,1307.11000000,1282.80000000,1270.10000000,1256.01000000,1242.40000000,1240.47000000,1231.09000000,1222.16000000,1202.20000000,1210.43000000,1228.27000000,1253.36000000,1260.54000000,1242.56000000,1231.26000000,1221.02000000,1205.83000000,1189.39000000,1169.64000000,1151.76000000,1138.84000000,1156.20000000,1169.51000000,1188.33000000,1204.11000000,1218.30000000,1231.49000000,1244.30000000,1233.00000000,1210.78000000,1197.14000000,1187.37000000,1167.99000000,1150.94000000,1132.10000000,1108.31000000,1087.23000000,1068.87000000
2295.64000000,2303.07000000,2314.80000000,2330.52000000,2345.88000000,2365.44000000,2383.70000000,2401.72000000,2423.70000000,2443.12000000,2452.17000000,2457.12000000,2465.19000000,2470.61000000,2479.44000000,2486.27000000,2493.28000000,2504.19000000,2518.63000000,2526.94000000,2535.18000000,2547.66000000,2560.43000000,2574.97000000,2588.99000000,2605.42000000,2622.63000000,2637.27000000,2650.94000000,2665.11000000,2678.62000000,2694.09000000,2709.45000000,2724.16000000,2736.08000000,2747.32000000,2741.38000000,2728.61000000,2710.25000000,2695.85000000,2680.88000000,2667.61000000,2656.56000000,2647.37000000,2637.83000000,2629.96000000,2606.22000000,2585.99000000,2564.51000000,2543.88000000,2521.67000000,2495.47000000,2463.71000000,2439.96000000,2414.09000000,2398.30000000,2382.18000000,2355.53000000,2336.38000000,2321.09000000,2303.54000000,2287.50000000,2271.93000000,2246.63000000,2236.66000000,2253.15000000,2226.28000000,2219.37000000,2215.88000000,2203.86000000,2196.70000000,2188.96000000,2175.43000000,2159.80000000,2142.05000000,2124.30000000,2098.63000000,2070.74000000,2047.64000000,2023.30000000,1996.67000000,1974.42000000,1976.79000000,2003.39000000,2020.40000000,2013.90000000,2007.67000000,2002.67000000,1992.03000000,1971.03000000,1944.86000000,1922.45000000,1909.52000000,1888.20000000,1862.39000000,1866.76000000,1874.63000000,1852.49000000,1854.73000000,1848.13000000,1827.50000000,1810.05000000,1794.71000000,1783.54000000,1758.66000000,1737.24000000,1725.81000000,1713.24000000,1704.89000000,1691.29000000,1688.96000000,1689.78000000,1688.25000000,1701.00000000,1710.45000000,1700.61000000,1679.08000000,1650.07000000,1631.77000000,1613.50000000,1604.14000000,1587.31000000,1562.96000000,1541.31000000,1515.19000000,1490.43000000,1467.55000000,1446.58000000,1420.82000000,1396.76000000,1377.88000000,1356.44000000,1337.62000000,1315.72000000,1300.40000000,1282.13000000,1259.64000000,1228.69000000,1193.93000000,1167.13000000,1169.20000000,1182.34000000,1209.23000000,1230.84000000,1249.06000000,1267.47000000,1283.68000000,1293.65000000,1290.46000000,1292.14000000,1292.76000000,1290.55000000,1286.63000000,1283.71000000,1283.27000000,1283.99000000,1288.79000000,1287.66000000,1283.02000000,1305.50000000,1314.69000000,1319.87000000,1322.45000000,1322.60000000,1319.62000000,1314.26000000,1309.79000000,1306.17000000,1301.57000000,1304.18000000,1308.27000000,1314.55000000,1321.69000000,1327.07000000,1319.54000000,1302.53000000,1281.89000000,1266.41000000,1249.40000000,1238.55000000,1231.71000000,1226.01000000,1215.99000000,1198.94000000,1203.33000000,1219.82000000,1237.06000000,1253.53000000,1241.32000000,1221.62000000,1209.67000000,1193.93000000,1181.95000000,1161.29000000,1143.26000000,1128.76000000,1141.30000000,1158.28000000,1176.35000000,1192.39000000,1210.66000000,1224.03000000,1235.22000000,1222.59000000,1198.86000000,1183.16000000,1169.21000000,1158.37000000,1140.12000000,1124.85000000,1101.92000000,1079.32000000,1060.03000000
2315.70000000,2322.63000000,2332.13000000,2341.16000000,2356.37000000,2374.23000000,2389.59000000,2400.85000000,2419.66000000,2442.11000000,2459.32000000,2460.25000000,2467.81000000,2475.84000000,2481.72000000,2488.57000000,2495.89000000,2508.33000000,2518.33000000,2532.10000000,2543.01000000,2553.35000000,2566.87000000,2581.58000000,2597.20000000,2612.16000000,2626.67000000,2640.86000000,2655.96000000,2670.43000000,2686.34000000,2698.99000000,2712.26000000,2726.39000000,2738.58000000,2750.70000000,2743.32000000,2726.52000000,2709.21000000,2693.67000000,2677.78000000,2659.87000000,2650.39000000,2635.61000000,2624.63000000,2609.04000000,2593.57000000,2582.45000000,2560.34000000,2537.59000000,2514.13000000,2487.34000000,2460.66000000,2443.65000000,2429.22000000,2415.12000000,2392.21000000,2369.29000000,2345.25000000,2325.26000000,2316.35000000,2306.46000000,2290.82000000,2278.20000000,2271.07000000,2262.43000000,2244.65000000,2238.20000000,2233.52000000,2230.39000000,2222.40000000,2208.56000000,2191.82000000,2172.57000000,2155.65000000,2133.91000000,2113.32000000,2086.61000000,2052.01000000,2026.57000000,1999.12000000,1972.11000000,1963.47000000,1983.09000000,1999.36000000,2002.88000000,1981.97000000,1974.64000000,1964.70000000,1950.85000000,1931.68000000,1905.83000000,1890.46000000,1882.19000000,1856.05000000,1837.62000000,1854.36000000,1833.51000000,1814.06000000,1817.89000000,1801.76000000,1778.82000000,1769.20000000,1758.87000000,1737.18000000,1720.25000000,1707.57000000,1696.31000000,1689.02000000,1678.97000000,1679.64000000,1680.47000000,1683.70000000,1693.81000000,1703.84000000,1693.70000000,1672.74000000,1645.59000000,1628.57000000,1611.55000000,1602.70000000,1586.39000000,1564.14000000,1546.05000000,1527.10000000,1500.78000000,1468.16000000,1445.53000000,1422.14000000,1391.92000000,1368.32000000,1348.21000000,1326.67000000,1309.31000000,1289.20000000,1276.22000000,1255.24000000,1221.60000000,1191.46000000,1166.35000000,1163.78000000,1174.38000000,1200.89000000,1219.79000000,1240.86000000,1258.61000000,1279.21000000,1288.46000000,1282.97000000,1280.70000000,1281.06000000,1280.57000000,1273.69000000,1270.43000000,1269.80000000,1270.00000000,1272.08000000,1269.63000000,1271.86000000,1287.47000000,1299.69000000,1303.30000000,1310.29000000,1309.33000000,1305.74000000,1302.09000000,1297.65000000,1288.63000000,1285.84000000,1292.74000000,1298.79000000,1307.65000000,1315.16000000,1320.18000000,1314.60000000,1297.04000000,1279.98000000,1264.87000000,1249.86000000,1239.91000000,1231.73000000,1224.13000000,1212.98000000,1198.08000000,1193.68000000,1209.28000000,1222.97000000,1236.98000000,1237.67000000,1219.67000000,1203.21000000,1184.67000000,1169.16000000,1151.51000000,1137.17000000,1119.24000000,1126.98000000,1147.12000000,1165.68000000,1183.05000000,1201.01000000,1215.90000000,1226.41000000,1214.94000000,1192.48000000,1177.13000000,1158.68000000,1142.88000000,1128.83000000,1114.78000000,1097.01000000,1072.34000000,1055.12000000
2341.28000000,2347.09000000,2351.37000000,2355.03000000,2362.36000000,2377.72000000,2392.07000000,2402.76000000,2422.38000000,2442.83000000,2460.54000000,2467.74000000,2468.02000000,2473.90000000,2485.14000000,2499.01000000,2510.71000000,2519.54000000,2530.25000000,2543.84000000,2554.14000000,2566.43000000,2577.26000000,2588.65000000,2607.30000000,2625.92000000,2640.87000000,2654.48000000,2667.60000000,2683.39000000,2695.49000000,2707.43000000,2721.80000000,2732.61000000,2741.67000000,2752.48000000,2740.47000000,2722.89000000,2707.91000000,2692.19000000,2674.60000000,2656.15000000,2646.57000000,2630.98000000,2622.26000000,2597.36000000,2583.00000000,2570.16000000,2546.77000000,2527.65000000,2505.33000000,2483.78000000,2467.06000000,2461.44000000,2446.89000000,2419.84000000,2392.92000000,2367.23000000,2345.76000000,2339.85000000,2325.95000000,2309.40000000,2299.36000000,2292.60000000,2287.59000000,2268.57000000,2258.56000000,2252.74000000,2247.06000000,2253.58000000,2245.61000000,2225.34000000,2204.91000000,2184.19000000,2167.24000000,2149.93000000,2126.57000000,2099.77000000,2061.83000000,2026.93000000,1997.31000000,1970.60000000,1953.00000000,1969.89000000,1985.34000000,1985.86000000,1965.02000000,1950.24000000,1944.63000000,1923.01000000,1910.10000000,1891.92000000,1869.33000000,1863.85000000,1840.67000000,1812.73000000,1826.06000000,1812.35000000,1790.09000000,1785.77000000,1770.97000000,1753.94000000,1748.90000000,1740.09000000,1719.31000000,1702.87000000,1693.04000000,1681.06000000,1673.01000000,1669.77000000,1671.98000000,1669.86000000,1675.14000000,1687.66000000,1692.48000000,1677.45000000,1658.19000000,1631.31000000,1610.79000000,1595.32000000,1587.76000000,1576.05000000,1556.36000000,1541.17000000,1529.79000000,1504.67000000,1468.67000000,1442.54000000,1420.86000000,1390.55000000,1367.00000000,1347.97000000,1327.59000000,1306.29000000,1283.41000000,1263.09000000,1242.84000000,1214.72000000,1189.65000000,1164.19000000,1156.33000000,1166.85000000,1187.03000000,1208.20000000,1237.64000000,1260.29000000,1276.64000000,1282.30000000,1278.45000000,1274.28000000,1269.71000000,1265.97000000,1260.01000000,1253.38000000,1253.03000000,1256.29000000,1257.32000000,1254.22000000,1256.84000000,1267.35000000,1277.93000000,1286.40000000,1295.45000000,1297.70000000,1291.64000000,1286.76000000,1282.05000000,1272.56000000,1273.54000000,1279.61000000,1289.27000000,1298.78000000,1308.14000000,1312.95000000,1307.88000000,1292.71000000,1276.48000000,1265.13000000,1256.30000000,1248.92000000,1241.74000000,1228.08000000,1213.68000000,1199.89000000,1186.45000000,1194.30000000,1205.23000000,1218.27000000,1230.22000000,1216.69000000,1198.60000000,1180.03000000,1158.73000000,1140.26000000,1126.97000000,1109.71000000,1119.73000000,1134.44000000,1155.53000000,1175.99000000,1191.69000000,1209.49000000,1220.26000000,1218.45000000,1197.88000000,1174.53000000,1153.85000000,1135.48000000,1118.43000000,1106.51000000,1088.57000000,1068.05000000,1049.47000000
2361.30000000,2366.04000000,2367.99000000,2370.31000000,2378.27000000,2390.53000000,2398.20000000,2409.95000000,2429.50000000,2446.36000000,2461.19000000,2471.16000000,2473.64000000,2476.54000000,2480.79000000,2491.15000000,2506.58000000,2523.43000000,2534.56000000,2546.41000000,2561.29000000,2574.44000000,2586.20000000,2601.77000000,2616.06000000,2633.11000000,2649.03000000,2663.85000000,2681.90000000,2693.64000000,2705.55000000,2719.38000000,2730.59000000,2738.56000000,2747.52000000,2755.18000000,2737.84000000,2723.38000000,2707.97000000,2693.75000000,2678.48000000,2660.10000000,2649.50000000,2639.27000000,2631.56000000,2604.77000000,2582.85000000,2563.56000000,2542.48000000,2525.69000000,2506.99000000,2492.89000000,2485.32000000,2471.38000000,2447.01000000,2421.85000000,2394.53000000,2375.93000000,2361.39000000,2356.14000000,2336.59000000,2318.38000000,2306.54000000,2301.29000000,2298.81000000,2282.81000000,2276.63000000,2272.05000000,2272.86000000,2281.15000000,2264.42000000,2243.08000000,2217.02000000,2200.92000000,2177.97000000,2147.88000000,2121.01000000,2090.12000000,2059.04000000,2026.91000000,1992.21000000,1966.29000000,1944.43000000,1946.81000000,1962.27000000,1963.37000000,1956.75000000,1932.85000000,1916.72000000,1903.94000000,1886.28000000,1875.98000000,1843.88000000,1836.81000000,1814.95000000,1791.47000000,1797.53000000,1793.08000000,1770.51000000,1752.65000000,1747.16000000,1733.67000000,1727.38000000,1719.81000000,1701.45000000,1686.17000000,1675.60000000,1666.62000000,1659.54000000,1660.45000000,1661.80000000,1660.58000000,1663.34000000,1675.40000000,1675.16000000,1657.26000000,1635.10000000,1613.84000000,1593.74000000,1576.97000000,1564.34000000,1554.00000000,1533.47000000,1518.78000000,1516.41000000,1500.68000000,1475.20000000,1442.34000000,1419.58000000,1388.68000000,1364.14000000,1341.50000000,1321.27000000,1303.73000000,1278.23000000,1257.28000000,1233.98000000,1214.24000000,1193.29000000,1165.46000000,1153.39000000,1156.66000000,1177.65000000,1200.43000000,1229.85000000,1257.63000000,1275.26000000,1281.80000000,1279.98000000,1274.52000000,1268.71000000,1257.02000000,1244.68000000,1240.12000000,1240.38000000,1243.70000000,1244.97000000,1237.26000000,1241.00000000,1249.03000000,1261.03000000,1272.11000000,1283.74000000,1290.83000000,1284.72000000,1276.16000000,1269.56000000,1264.55000000,1261.04000000,1265.81000000,1279.67000000,1291.60000000,1297.39000000,1300.73000000,1298.25000000,1287.48000000,1275.47000000,1269.37000000,1264.38000000,1259.37000000,1251.72000000,1237.65000000,1216.16000000,1202.82000000,1185.00000000,1176.52000000,1186.07000000,1202.75000000,1218.38000000,1205.90000000,1188.70000000,1173.26000000,1153.10000000,1131.82000000,1116.00000000,1099.62000000,1111.51000000,1126.43000000,1146.64000000,1169.92000000,1186.74000000,1204.62000000,1216.95000000,1220.51000000,1200.14000000,1174.55000000,1152.85000000,1130.03000000,1112.13000000,1096.04000000,1079.66000000,1060.91000000,1043.04000000
2381.76000000,2382.16000000,2381.22000000,2389.09000000,2395.34000000,2402.59000000,2413.07000000,2423.55000000,2439.92000000,2451.67000000,2459.96000000,2467.25000000,2471.23000000,2473.71000000,2477.63000000,2484.59000000,2494.97000000,2513.80000000,2529.74000000,2543.38000000,2562.74000000,2580.37000000,2596.53000000,2609.27000000,2620.80000000,2633.84000000,2650.95000000,2667.52000000,2686.99000000,2699.37000000,2714.25000000,2728.57000000,2740.15000000,2746.83000000,2756.58000000,2754.57000000,2738.75000000,2725.17000000,2709.10000000,2692.11000000,2677.10000000,2663.47000000,2653.15000000,2644.99000000,2638.97000000,2624.54000000,2600.24000000,2576.81000000,2550.08000000,2532.13000000,2516.35000000,2503.77000000,2489.13000000,2470.11000000,2447.72000000,2425.54000000,2396.30000000,2386.33000000,2380.80000000,2365.82000000,2346.68000000,2333.48000000,2319.48000000,2316.63000000,2312.29000000,2303.71000000,2297.74000000,2291.44000000,2289.36000000,2301.46000000,2281.02000000,2257.74000000,2234.61000000,2210.59000000,2181.46000000,2148.72000000,2114.69000000,2085.26000000,2054.10000000,2028.71000000,1992.31000000,1961.71000000,1937.98000000,1924.16000000,1934.59000000,1939.15000000,1934.49000000,1906.81000000,1893.03000000,1881.43000000,1861.46000000,1856.98000000,1832.79000000,1811.92000000,1793.38000000,1772.75000000,1765.49000000,1766.74000000,1752.39000000,1732.11000000,1721.87000000,1712.64000000,1702.68000000,1697.12000000,1681.68000000,1666.53000000,1657.77000000,1654.67000000,1649.48000000,1647.25000000,1650.87000000,1651.26000000,1651.31000000,1660.11000000,1649.93000000,1637.95000000,1618.31000000,1595.41000000,1575.80000000,1558.17000000,1540.06000000,1520.51000000,1497.70000000,1494.48000000,1494.69000000,1491.38000000,1474.00000000,1448.36000000,1424.03000000,1393.71000000,1364.76000000,1344.21000000,1320.33000000,1300.47000000,1274.91000000,1254.02000000,1235.58000000,1215.47000000,1193.86000000,1169.21000000,1154.43000000,1149.46000000,1171.77000000,1194.42000000,1227.23000000,1256.38000000,1276.92000000,1282.49000000,1279.34000000,1272.43000000,1264.02000000,1249.06000000,1235.63000000,1226.01000000,1228.18000000,1231.89000000,1234.18000000,1222.92000000,1225.07000000,1239.36000000,1249.44000000,1261.11000000,1275.52000000,1283.40000000,1280.91000000,1271.49000000,1256.73000000,1252.03000000,1248.23000000,1257.97000000,1268.99000000,1282.34000000,1289.88000000,1293.83000000,1294.72000000,1288.91000000,1280.84000000,1278.16000000,1275.34000000,1268.26000000,1260.14000000,1239.97000000,1222.03000000,1203.18000000,1184.78000000,1166.10000000,1172.22000000,1188.33000000,1206.15000000,1197.85000000,1177.66000000,1159.20000000,1143.62000000,1125.18000000,1108.27000000,1089.38000000,1103.62000000,1120.10000000,1143.30000000,1167.21000000,1184.87000000,1201.83000000,1212.26000000,1211.90000000,1192.61000000,1165.87000000,1149.98000000,1127.41000000,1107.77000000,1089.42000000,1072.38000000,1056.59000000,1041.90000000
2397.51000000,2400.99000000,2400.54000000,2408.83000000,2411.52000000,2416.90000000,2430.26000000,2438.20000000,2444.50000000,2452.03000000,2456.45000000,2459.74000000,2464.43000000,2470.07000000,2474.91000000,2480.62000000,2488.33000000,2506.61000000,2525.33000000,2541.95000000,2562.76000000,2583.29000000,2601.10000000,2618.93000000,2630.64000000,2642.53000000,2654.33000000,2668.67000000,2686.52000000,2700.52000000,2716.88000000,2730.55000000,2742.65000000,2751.96000000,2759.95000000,2757.34000000,2740.76000000,2727.81000000,2710.22000000,2696.51000000,2682.55000000,2670.00000000,2661.22000000,2649.27000000,2642.05000000,2630.43000000,2609.61000000,2583.97000000,2558.00000000,2534.48000000,2520.02000000,2501.38000000,2485.56000000,2466.68000000,2450.43000000,2435.70000000,2419.51000000,2406.34000000,2394.91000000,2381.02000000,2361.33000000,2354.01000000,2376.98000000,2433.44000000,2365.13000000,2327.06000000,2318.07000000,2312.36000000,2310.04000000,2306.89000000,2292.29000000,2266.23000000,2242.13000000,2215.64000000,2160.31000000,2138.89000000,2108.09000000,2079.59000000,2051.49000000,2031.55000000,1994.53000000,1957.73000000,1932.25000000,1909.12000000,1908.14000000,1915.77000000,1910.67000000,1885.58000000,1862.91000000,1857.28000000,1840.88000000,1827.83000000,1811.92000000,1792.06000000,1769.98000000,1751.69000000,1740.66000000,1731.86000000,1727.42000000,1710.09000000,1693.74000000,1685.41000000,1676.89000000,1675.61000000,1663.68000000,1646.20000000,1639.07000000,1641.80000000,1638.71000000,1639.75000000,1641.21000000,1637.92000000,1636.97000000,1642.68000000,1631.57000000,1618.03000000,1605.71000000,1581.12000000,1556.52000000,1534.26000000,1514.30000000,1496.05000000,1479.93000000,1471.79000000,1470.84000000,1465.72000000,1459.63000000,1446.15000000,1425.06000000,1398.30000000,1370.53000000,1350.12000000,1326.77000000,1302.24000000,1276.31000000,1256.51000000,1237.74000000,1212.54000000,1189.60000000,1174.62000000,1157.25000000,1148.80000000,1162.13000000,1191.56000000,1224.54000000,1255.59000000,1275.28000000,1280.26000000,1272.48000000,1262.66000000,1250.37000000,1236.78000000,1224.01000000,1209.64000000,1212.46000000,1217.94000000,1217.89000000,1212.87000000,1212.02000000,1229.63000000,1242.42000000,1255.59000000,1266.87000000,1274.69000000,1273.42000000,1267.80000000,1247.63000000,1239.03000000,1235.44000000,1247.65000000,1256.38000000,1269.69000000,1279.02000000,1280.06000000,1284.27000000,1289.82000000,1286.21000000,1282.68000000,1275.66000000,1265.19000000,1253.43000000,1235.12000000,1221.45000000,1203.16000000,1187.06000000,1166.49000000,1159.79000000,1177.56000000,1193.51000000,1185.87000000,1175.17000000,1155.36000000,1135.84000000,1119.63000000,1108.53000000,1082.70000000,1093.46000000,1115.63000000,1140.84000000,1164.08000000,1182.14000000,1195.46000000,1195.30000000,1194.22000000,1191.11000000,1165.45000000,1144.95000000,1126.10000000,1106.59000000,1087.41000000,1069.76000000,1054.52000000,1038.09000000
2409.56000000,2416.11000000,2418.98000000,2427.13000000,2429.13000000,2435.72000000,2446.27000000,2451.42000000,2454.76000000,2455.76000000,2455.64000000,2457.56000000,2460.38000000,2466.63000000,2473.27000000,2480.17000000,2488.60000000,2504.20000000,2522.11000000,2542.76000000,2563.34000000,2584.08000000,2606.05000000,2625.42000000,2639.29000000,2652.72000000,2664.74000000,2677.99000000,2693.01000000,2706.25000000,2720.57000000,2733.11000000,2743.32000000,2753.10000000,2760.13000000,2759.10000000,2744.73000000,2727.84000000,2714.98000000,2703.13000000,2689.80000000,2677.73000000,2669.53000000,2654.67000000,2638.88000000,2624.24000000,2602.79000000,2578.75000000,2554.80000000,2536.94000000,2521.47000000,2508.56000000,2489.18000000,2470.42000000,2457.13000000,2449.76000000,2438.15000000,2423.15000000,2409.90000000,2394.59000000,2381.85000000,2370.62000000,2369.39000000,2426.35000000,2445.24000000,2386.51000000,2337.52000000,2330.77000000,2324.54000000,2310.50000000,2291.13000000,2265.09000000,2244.27000000,2219.59000000,2160.52000000,2140.16000000,2114.65000000,2092.79000000,2060.01000000,2028.63000000,1996.26000000,1959.38000000,1928.05000000,1905.96000000,1886.41000000,1887.30000000,1886.23000000,1866.15000000,1841.53000000,1826.51000000,1812.02000000,1803.43000000,1790.62000000,1772.11000000,1746.51000000,1726.48000000,1714.25000000,1698.32000000,1695.13000000,1686.44000000,1668.69000000,1656.04000000,1647.64000000,1651.71000000,1648.88000000,1630.98000000,1616.93000000,1622.41000000,1626.13000000,1629.00000000,1624.09000000,1619.98000000,1616.38000000,1625.61000000,1598.27000000,1587.02000000,1581.05000000,1562.69000000,1529.59000000,1504.33000000,1487.16000000,1471.13000000,1456.57000000,1448.93000000,1444.18000000,1441.29000000,1437.46000000,1434.76000000,1422.24000000,1399.30000000,1374.23000000,1353.26000000,1331.69000000,1307.90000000,1283.11000000,1262.80000000,1245.42000000,1215.04000000,1187.07000000,1174.38000000,1159.57000000,1148.42000000,1156.67000000,1186.54000000,1218.55000000,1243.70000000,1267.23000000,1269.33000000,1258.72000000,1243.82000000,1234.61000000,1222.88000000,1208.59000000,1197.46000000,1199.17000000,1204.09000000,1200.88000000,1197.11000000,1203.49000000,1219.54000000,1236.23000000,1249.67000000,1257.03000000,1258.03000000,1259.83000000,1260.26000000,1245.41000000,1227.05000000,1220.69000000,1236.11000000,1244.23000000,1251.70000000,1257.59000000,1260.03000000,1270.99000000,1278.58000000,1278.26000000,1273.12000000,1264.33000000,1254.45000000,1240.56000000,1227.30000000,1213.16000000,1197.80000000,1185.63000000,1169.60000000,1150.18000000,1162.77000000,1172.40000000,1167.11000000,1156.33000000,1148.72000000,1123.03000000,1108.55000000,1102.63000000,1077.70000000,1083.14000000,1108.86000000,1134.78000000,1154.43000000,1169.59000000,1176.12000000,1174.10000000,1174.62000000,1175.18000000,1159.01000000,1138.63000000,1121.26000000,1102.93000000,1086.11000000,1074.28000000,1059.73000000,1040.95000000
2420.09000000,2432.67000000,2440.53000000,2445.05000000,2446.30000000,2453.31000000,2459.58000000,2463.58000000,2462.88000000,2462.41000000,2461.03000000,2462.57000000,2466.06000000,2469.87000000,2477.34000000,2485.49000000,2494.57000000,2507.12000000,2521.46000000,2543.53000000,2564.97000000,2588.12000000,2608.07000000,2627.17000000,2644.86000000,2657.24000000,2670.00000000,2682.67000000,2699.10000000,2713.95000000,2725.81000000,2737.35000000,2745.22000000,2752.95000000,2760.55000000,2760.04000000,2750.84000000,2736.05000000,2723.45000000,2709.76000000,2696.43000000,2686.43000000,2679.16000000,2664.42000000,2649.88000000,2632.47000000,2617.48000000,2595.47000000,2574.02000000,2551.96000000,2535.09000000,2517.09000000,2495.92000000,2478.18000000,2465.92000000,2457.24000000,2449.41000000,2438.46000000,2418.61000000,2409.07000000,2407.34000000,2387.08000000,2384.95000000,2395.98000000,2459.20000000,2433.82000000,2359.89000000,2347.27000000,2335.40000000,2316.73000000,2299.47000000,2270.79000000,2245.61000000,2218.80000000,2187.80000000,2164.67000000,2136.40000000,2107.20000000,2072.76000000,2036.93000000,2000.20000000,1961.46000000,1929.15000000,1903.77000000,1881.11000000,1864.45000000,1857.94000000,1845.50000000,1823.08000000,1806.03000000,1790.90000000,1777.79000000,1766.05000000,1749.23000000,1728.52000000,1702.07000000,1689.48000000,1675.20000000,1663.68000000,1649.50000000,1640.17000000,1632.05000000,1624.85000000,1625.64000000,1629.55000000,1614.65000000,1595.60000000,1597.98000000,1604.92000000,1610.47000000,1606.37000000,1596.02000000,1597.20000000,1609.09000000,1575.80000000,1558.07000000,1551.48000000,1530.16000000,1503.41000000,1476.65000000,1458.64000000,1452.30000000,1436.57000000,1424.70000000,1419.50000000,1415.18000000,1415.51000000,1415.89000000,1411.71000000,1398.66000000,1380.17000000,1352.53000000,1334.17000000,1313.04000000,1294.57000000,1276.23000000,1254.88000000,1226.27000000,1192.54000000,1173.79000000,1160.15000000,1145.74000000,1152.57000000,1178.49000000,1209.92000000,1232.67000000,1257.35000000,1252.74000000,1242.68000000,1228.59000000,1217.18000000,1201.49000000,1193.42000000,1176.83000000,1187.28000000,1187.97000000,1184.45000000,1182.40000000,1197.06000000,1208.73000000,1223.62000000,1242.09000000,1247.62000000,1241.84000000,1241.98000000,1245.00000000,1238.39000000,1217.78000000,1210.64000000,1227.10000000,1230.22000000,1230.79000000,1234.45000000,1235.88000000,1250.03000000,1261.62000000,1254.97000000,1246.31000000,1247.71000000,1244.58000000,1233.68000000,1219.29000000,1204.93000000,1194.24000000,1185.22000000,1170.83000000,1145.61000000,1143.62000000,1149.42000000,1147.88000000,1137.12000000,1128.20000000,1113.98000000,1093.21000000,1082.55000000,1065.70000000,1076.37000000,1100.70000000,1118.21000000,1135.35000000,1149.23000000,1157.78000000,1154.09000000,1154.57000000,1154.77000000,1146.93000000,1127.42000000,1105.66000000,1092.17000000,1077.99000000,1072.62000000,1060.82000000,1042.03000000
2426.79000000,2444.98000000,2455.99000000,2463.44000000,2465.61000000,2471.91000000,2477.95000000,2475.20000000,2470.53000000,2471.07000000,2473.53000000,2478.13000000,2485.28000000,2488.13000000,2491.98000000,2498.51000000,2507.83000000,2515.04000000,2525.25000000,2544.10000000,2564.37000000,2590.03000000,2608.93000000,2629.28000000,2649.83000000,2664.28000000,2676.28000000,2688.76000000,2702.53000000,2717.55000000,2732.70000000,2740.99000000,2748.16000000,2757.53000000,2761.74000000,2761.23000000,2759.82000000,2748.61000000,2733.69000000,2716.74000000,2706.14000000,2695.85000000,2690.41000000,2673.26000000,2656.69000000,2637.84000000,2623.57000000,2603.26000000,2583.23000000,2560.97000000,2542.59000000,2522.16000000,2504.27000000,2490.75000000,2475.50000000,2465.56000000,2457.54000000,2447.18000000,2435.97000000,2428.67000000,2424.51000000,2413.51000000,2416.15000000,2458.07000000,2485.88000000,2455.70000000,2374.07000000,2355.87000000,2342.97000000,2331.86000000,2302.00000000,2276.85000000,2249.19000000,2223.94000000,2196.19000000,2162.83000000,2132.81000000,2102.38000000,2066.45000000,2038.82000000,2007.43000000,1967.41000000,1935.43000000,1905.20000000,1884.05000000,1865.15000000,1846.37000000,1824.51000000,1800.51000000,1793.34000000,1777.83000000,1764.13000000,1750.90000000,1732.90000000,1717.32000000,1709.49000000,1699.71000000,1684.49000000,1658.31000000,1636.63000000,1621.29000000,1606.02000000,1600.67000000,1601.30000000,1602.89000000,1595.19000000,1579.24000000,1578.97000000,1585.36000000,1594.04000000,1586.87000000,1577.14000000,1576.48000000,1596.74000000,1564.25000000,1525.08000000,1514.41000000,1499.18000000,1473.55000000,1453.61000000,1438.08000000,1435.20000000,1420.34000000,1397.95000000,1389.69000000,1385.82000000,1382.89000000,1387.78000000,1392.86000000,1391.97000000,1381.60000000,1354.54000000,1333.75000000,1316.78000000,1302.92000000,1286.35000000,1260.07000000,1236.22000000,1203.48000000,1171.71000000,1158.26000000,1139.42000000,1146.63000000,1170.44000000,1202.37000000,1225.49000000,1244.23000000,1238.69000000,1229.09000000,1211.60000000,1199.86000000,1187.94000000,1173.45000000,1163.83000000,1170.55000000,1169.78000000,1163.65000000,1169.50000000,1184.27000000,1199.25000000,1213.56000000,1234.59000000,1238.44000000,1225.70000000,1225.14000000,1229.59000000,1224.84000000,1204.79000000,1195.48000000,1214.28000000,1215.61000000,1214.12000000,1218.81000000,1221.70000000,1232.64000000,1241.48000000,1237.82000000,1224.65000000,1223.69000000,1230.13000000,1227.05000000,1212.81000000,1201.99000000,1193.78000000,1185.49000000,1175.68000000,1150.99000000,1121.75000000,1124.01000000,1135.44000000,1122.79000000,1106.58000000,1097.89000000,1079.88000000,1059.78000000,1050.03000000,1067.73000000,1087.38000000,1100.50000000,1112.66000000,1125.64000000,1140.58000000,1138.71000000,1134.11000000,1135.03000000,1127.64000000,1110.62000000,1094.74000000,1076.56000000,1062.74000000,1060.24000000,1050.14000000,1034.96000000
2428.80000000,2453.18000000,2468.95000000,2479.48000000,2487.44000000,2495.78000000,2500.46000000,2492.86000000,2488.74000000,2489.49000000,2491.93000000,2501.50000000,2509.21000000,2513.10000000,2515.60000000,2518.82000000,2522.31000000,2526.78000000,2535.49000000,2551.70000000,2568.74000000,2592.26000000,2612.07000000,2630.05000000,2650.07000000,2667.39000000,2683.87000000,2695.86000000,2707.89000000,2723.27000000,2734.65000000,2741.95000000,2747.70000000,2756.70000000,2762.06000000,2761.78000000,2757.35000000,2743.80000000,2725.26000000,2710.17000000,2699.67000000,2690.13000000,2679.54000000,2659.82000000,2642.50000000,2632.18000000,2618.51000000,2611.06000000,2589.19000000,2570.37000000,2550.64000000,2531.94000000,2514.73000000,2499.54000000,2489.22000000,2480.22000000,2472.57000000,2461.85000000,2455.78000000,2451.08000000,2462.94000000,2468.93000000,2476.80000000,2502.93000000,2491.67000000,2464.22000000,2382.73000000,2367.98000000,2362.60000000,2364.98000000,2324.93000000,2269.93000000,2245.22000000,2221.55000000,2189.10000000,2161.98000000,2133.14000000,2106.36000000,2067.84000000,2022.27000000,1997.55000000,1966.32000000,1938.62000000,1927.83000000,1900.36000000,1878.21000000,1855.14000000,1830.53000000,1815.76000000,1800.26000000,1782.49000000,1769.08000000,1756.43000000,1741.65000000,1736.24000000,1738.50000000,1725.42000000,1707.44000000,1688.23000000,1663.37000000,1647.36000000,1625.51000000,1595.35000000,1578.42000000,1570.30000000,1571.34000000,1560.99000000,1553.09000000,1567.40000000,1574.12000000,1563.88000000,1552.94000000,1563.18000000,1580.81000000,1563.24000000,1508.26000000,1487.35000000,1469.84000000,1451.81000000,1431.87000000,1412.10000000,1407.01000000,1397.38000000,1376.13000000,1365.96000000,1363.51000000,1357.88000000,1361.83000000,1371.73000000,1379.68000000,1372.41000000,1351.80000000,1332.78000000,1317.50000000,1302.04000000,1289.83000000,1261.77000000,1238.33000000,1208.66000000,1175.95000000,1153.59000000,1137.76000000,1140.53000000,1163.88000000,1191.48000000,1217.80000000,1231.50000000,1221.95000000,1205.93000000,1197.09000000,1185.36000000,1173.71000000,1158.21000000,1151.00000000,1150.93000000,1148.48000000,1154.80000000,1162.44000000,1169.70000000,1189.43000000,1207.41000000,1227.97000000,1228.45000000,1214.80000000,1211.40000000,1210.21000000,1205.14000000,1189.87000000,1182.36000000,1193.86000000,1191.59000000,1194.87000000,1202.41000000,1206.56000000,1217.07000000,1223.49000000,1222.59000000,1203.22000000,1203.06000000,1212.75000000,1219.95000000,1215.54000000,1206.56000000,1195.26000000,1187.43000000,1181.18000000,1161.71000000,1130.86000000,1107.83000000,1116.56000000,1112.30000000,1093.24000000,1075.45000000,1063.73000000,1045.55000000,1039.11000000,1056.96000000,1067.49000000,1075.41000000,1087.84000000,1108.98000000,1124.55000000,1121.22000000,1108.74000000,1109.63000000,1103.07000000,1094.09000000,1079.39000000,1061.52000000,1044.44000000,1036.32000000,1028.33000000,1018.13000000
2441.86000000,2457.77000000,2475.13000000,2489.19000000,2501.57000000,2509.95000000,2513.34000000,2509.76000000,2505.81000000,2509.63000000,2514.74000000,2527.22000000,2538.84000000,2541.35000000,2540.43000000,2540.59000000,2545.03000000,2546.79000000,2554.63000000,2568.66000000,2578.24000000,2596.76000000,2615.44000000,2633.93000000,2651.88000000,2670.89000000,2689.39000000,2702.35000000,2716.47000000,2731.64000000,2742.92000000,2750.62000000,2752.56000000,2757.06000000,2761.86000000,2761.57000000,2741.03000000,2721.88000000,2708.67000000,2696.27000000,2679.75000000,2669.96000000,2661.87000000,2643.19000000,2629.18000000,2610.60000000,2604.88000000,2606.53000000,2595.28000000,2578.49000000,2561.20000000,2543.56000000,2527.42000000,2514.04000000,2504.22000000,2496.80000000,2491.99000000,2482.94000000,2477.87000000,2469.46000000,2476.78000000,2477.91000000,2495.80000000,2511.78000000,2488.86000000,2463.93000000,2400.71000000,2393.57000000,2386.72000000,2392.06000000,2365.17000000,2258.85000000,2238.79000000,2213.21000000,2185.78000000,2160.94000000,2137.45000000,2113.70000000,2087.24000000,2015.70000000,1987.64000000,1964.59000000,1953.68000000,1952.20000000,1927.86000000,1907.40000000,1887.70000000,1846.33000000,1842.63000000,1820.51000000,1799.21000000,1786.45000000,1789.79000000,1790.67000000,1780.38000000,1764.18000000,1749.09000000,1734.29000000,1713.03000000,1686.84000000,1669.12000000,1652.16000000,1622.47000000,1597.77000000,1564.77000000,1547.49000000,1535.82000000,1531.55000000,1543.58000000,1543.15000000,1538.04000000,1531.38000000,1546.87000000,1563.69000000,1553.33000000,1500.66000000,1474.13000000,1454.16000000,1435.10000000,1414.20000000,1396.54000000,1380.25000000,1370.90000000,1356.20000000,1346.23000000,1340.31000000,1337.65000000,1337.56000000,1348.68000000,1357.80000000,1355.76000000,1341.47000000,1326.65000000,1312.01000000,1297.35000000,1284.68000000,1260.51000000,1238.29000000,1211.20000000,1180.42000000,1148.25000000,1136.00000000,1137.96000000,1155.45000000,1181.57000000,1202.49000000,1210.97000000,1202.99000000,1190.17000000,1180.47000000,1168.68000000,1153.76000000,1141.06000000,1137.02000000,1141.99000000,1144.28000000,1154.05000000,1163.57000000,1173.53000000,1188.98000000,1212.04000000,1220.98000000,1218.23000000,1209.55000000,1191.88000000,1191.96000000,1187.48000000,1169.40000000,1159.06000000,1168.89000000,1171.94000000,1175.51000000,1184.01000000,1193.29000000,1203.38000000,1206.22000000,1201.38000000,1187.24000000,1187.49000000,1197.91000000,1204.32000000,1201.89000000,1197.61000000,1195.40000000,1189.54000000,1178.53000000,1159.90000000,1135.71000000,1104.75000000,1098.64000000,1096.06000000,1085.46000000,1063.63000000,1048.89000000,1037.00000000,1026.50000000,1030.66000000,1045.33000000,1059.71000000,1073.32000000,1092.95000000,1097.59000000,1097.62000000,1090.98000000,1089.53000000,1082.89000000,1071.15000000,1060.80000000,1047.60000000,1027.22000000,1013.49000000,1006.69000000,998.76000000
2452.26000000,2462.32000000,2479.03000000,2496.36000000,2512.32000000,2522.86000000,2529.66000000,2526.24000000,2523.73000000,2527.37000000,2537.29000000,2553.49000000,2564.84000000,2569.68000000,2572.26000000,2569.11000000,2569.84000000,2568.83000000,2572.16000000,2582.95000000,2592.59000000,2607.57000000,2623.44000000,2641.83000000,2658.67000000,2674.84000000,2693.30000000,2707.05000000,2722.29000000,2737.45000000,2750.99000000,2755.88000000,2756.60000000,2758.15000000,2760.17000000,2759.67000000,2735.03000000,2710.07000000,2689.97000000,2676.35000000,2661.88000000,2645.88000000,2639.70000000,2624.17000000,2609.57000000,2594.48000000,2584.13000000,2579.75000000,2584.85000000,2578.89000000,2565.08000000,2560.60000000,2548.52000000,2538.36000000,2524.82000000,2516.38000000,2513.99000000,2510.72000000,2504.48000000,2493.22000000,2490.38000000,2490.33000000,2504.11000000,2508.74000000,2486.11000000,2463.12000000,2418.14000000,2419.80000000,2413.00000000,2401.20000000,2368.37000000,2281.78000000,2249.21000000,2226.06000000,2198.51000000,2171.18000000,2138.70000000,2114.81000000,2096.00000000,2037.62000000,2010.58000000,1983.43000000,1991.13000000,1989.16000000,1954.08000000,1933.76000000,1900.83000000,1871.92000000,1879.90000000,1878.16000000,1855.68000000,1842.12000000,1826.84000000,1819.19000000,1801.01000000,1789.81000000,1775.55000000,1755.37000000,1734.91000000,1702.62000000,1681.56000000,1660.27000000,1635.97000000,1611.99000000,1578.45000000,1557.81000000,1547.69000000,1525.63000000,1511.82000000,1507.66000000,1507.00000000,1507.59000000,1525.53000000,1541.10000000,1533.47000000,1489.82000000,1462.85000000,1446.75000000,1429.57000000,1400.47000000,1382.80000000,1361.63000000,1347.56000000,1339.67000000,1334.00000000,1320.20000000,1318.48000000,1318.44000000,1326.59000000,1335.01000000,1336.36000000,1325.06000000,1309.90000000,1298.81000000,1290.43000000,1270.68000000,1252.10000000,1230.36000000,1205.84000000,1179.54000000,1147.25000000,1135.31000000,1134.71000000,1146.82000000,1174.18000000,1192.06000000,1191.01000000,1185.85000000,1174.34000000,1157.41000000,1149.64000000,1137.72000000,1129.84000000,1131.73000000,1137.12000000,1139.02000000,1151.74000000,1164.27000000,1179.60000000,1195.32000000,1208.56000000,1204.70000000,1209.01000000,1206.83000000,1181.75000000,1168.43000000,1165.59000000,1155.24000000,1142.30000000,1142.74000000,1149.12000000,1155.39000000,1162.25000000,1170.25000000,1177.13000000,1180.45000000,1180.70000000,1170.44000000,1169.60000000,1180.28000000,1181.56000000,1178.70000000,1174.38000000,1175.87000000,1184.81000000,1178.13000000,1157.35000000,1140.59000000,1118.90000000,1105.86000000,1094.35000000,1087.06000000,1079.91000000,1065.29000000,1050.30000000,1031.90000000,1015.17000000,1024.65000000,1041.93000000,1060.43000000,1075.17000000,1079.72000000,1077.81000000,1071.89000000,1066.53000000,1060.45000000,1051.18000000,1041.02000000,1028.62000000,1016.65000000,1002.25000000,986.48000000,975.63000000
2467.42000000,2474.18000000,2491.90000000,2511.18000000,2524.82000000,2535.62000000,2541.97000000,2544.69000000,2541.15000000,2546.05000000,2558.05000000,2577.72000000,2589.14000000,2592.59000000,2596.17000000,2597.16000000,2595.02000000,2591.14000000,2586.68000000,2595.84000000,2608.36000000,2622.24000000,2637.58000000,2652.13000000,2669.15000000,2689.78000000,2701.19000000,2712.78000000,2725.38000000,2739.03000000,2753.57000000,2759.88000000,2757.66000000,2757.92000000,2760.32000000,2756.79000000,2732.97000000,2705.50000000,2681.73000000,2659.22000000,2640.77000000,2625.28000000,2618.10000000,2604.40000000,2589.29000000,2578.85000000,2567.27000000,2553.11000000,2552.76000000,2551.76000000,2545.25000000,2539.20000000,2538.15000000,2535.70000000,2517.34000000,2506.74000000,2507.08000000,2505.22000000,2503.39000000,2497.89000000,2491.14000000,2490.19000000,2499.90000000,2511.54000000,2503.28000000,2468.95000000,2452.62000000,2447.47000000,2436.88000000,2405.75000000,2373.18000000,2304.38000000,2268.00000000,2241.27000000,2218.31000000,2188.42000000,2155.78000000,2127.51000000,2110.61000000,2080.17000000,2058.95000000,2030.70000000,2025.38000000,2023.47000000,1961.82000000,1929.57000000,1909.84000000,1913.82000000,1919.47000000,1906.91000000,1886.57000000,1863.13000000,1845.57000000,1843.94000000,1835.48000000,1820.24000000,1801.96000000,1772.65000000,1746.44000000,1715.15000000,1693.61000000,1670.26000000,1655.27000000,1633.06000000,1615.98000000,1580.96000000,1563.58000000,1549.95000000,1525.93000000,1494.79000000,1477.26000000,1486.60000000,1503.11000000,1514.31000000,1508.26000000,1474.81000000,1450.13000000,1435.13000000,1415.95000000,1396.78000000,1371.75000000,1350.43000000,1325.91000000,1320.35000000,1317.12000000,1304.97000000,1297.24000000,1296.38000000,1305.22000000,1318.05000000,1319.14000000,1305.80000000,1288.85000000,1277.94000000,1268.11000000,1249.07000000,1233.00000000,1219.00000000,1201.83000000,1179.38000000,1148.62000000,1136.16000000,1129.24000000,1137.26000000,1163.29000000,1178.07000000,1166.61000000,1162.93000000,1151.29000000,1135.44000000,1129.76000000,1128.60000000,1128.62000000,1131.13000000,1133.44000000,1136.40000000,1145.75000000,1160.28000000,1174.57000000,1187.01000000,1192.10000000,1188.50000000,1185.40000000,1190.41000000,1167.44000000,1150.50000000,1144.27000000,1138.07000000,1130.00000000,1126.65000000,1133.76000000,1140.12000000,1145.46000000,1145.80000000,1151.58000000,1154.40000000,1159.22000000,1157.43000000,1149.70000000,1162.67000000,1162.90000000,1157.32000000,1154.19000000,1159.11000000,1173.38000000,1178.38000000,1169.95000000,1155.86000000,1138.22000000,1124.31000000,1118.02000000,1109.33000000,1098.74000000,1084.24000000,1059.88000000,1036.86000000,1015.22000000,1012.20000000,1023.55000000,1042.15000000,1055.49000000,1057.02000000,1051.85000000,1048.93000000,1042.08000000,1034.51000000,1027.73000000,1022.86000000,1013.80000000,1001.99000000,987.99000000,974.87000000,960.81000000
2485.14000000,2490.63000000,2504.37000000,2526.72000000,2540.27000000,2549.06000000,2558.94000000,2563.65000000,2564.33000000,2566.34000000,2576.49000000,2591.51000000,2604.59000000,2612.53000000,2617.20000000,2617.55000000,2611.73000000,2603.58000000,2604.58000000,2614.28000000,2630.49000000,2642.49000000,2659.16000000,2674.13000000,2686.26000000,2698.85000000,2710.77000000,2718.69000000,2729.86000000,2739.02000000,2751.45000000,2756.58000000,2757.91000000,2760.87000000,2765.93000000,2752.42000000,2725.35000000,2700.28000000,2677.54000000,2656.70000000,2632.51000000,2613.47000000,2598.46000000,2583.85000000,2570.76000000,2560.42000000,2549.70000000,2536.09000000,2530.75000000,2530.26000000,2524.04000000,2519.14000000,2517.76000000,2507.28000000,2486.72000000,2467.82000000,2461.41000000,2460.39000000,2466.18000000,2470.76000000,2462.95000000,2467.91000000,2485.07000000,2500.17000000,2498.34000000,2479.60000000,2470.91000000,2458.38000000,2437.03000000,2406.58000000,2376.54000000,2335.43000000,2289.56000000,2249.11000000,2223.51000000,2199.56000000,2179.93000000,2159.16000000,2132.92000000,2100.72000000,2087.55000000,2066.60000000,2051.96000000,2030.70000000,1985.27000000,1950.76000000,1973.15000000,1964.57000000,1945.24000000,1927.31000000,1910.75000000,1887.65000000,1864.35000000,1863.26000000,1858.87000000,1842.85000000,1803.46000000,1778.06000000,1750.18000000,1729.46000000,1704.20000000,1682.46000000,1663.15000000,1657.50000000,1652.23000000,1632.80000000,1599.40000000,1570.11000000,1549.36000000,1523.77000000,1479.17000000,1464.84000000,1478.59000000,1481.12000000,1480.16000000,1453.93000000,1436.87000000,1420.28000000,1404.49000000,1384.90000000,1359.67000000,1338.62000000,1311.03000000,1295.54000000,1294.65000000,1289.30000000,1278.60000000,1274.57000000,1281.71000000,1290.76000000,1291.10000000,1285.51000000,1269.34000000,1254.23000000,1240.39000000,1224.97000000,1215.74000000,1205.07000000,1193.74000000,1175.45000000,1151.91000000,1136.93000000,1128.26000000,1129.58000000,1149.36000000,1154.24000000,1144.11000000,1140.17000000,1131.64000000,1128.27000000,1127.50000000,1127.08000000,1128.43000000,1129.16000000,1129.79000000,1131.82000000,1139.35000000,1149.03000000,1160.34000000,1170.79000000,1174.08000000,1166.54000000,1162.53000000,1166.25000000,1166.91000000,1148.94000000,1127.49000000,1123.20000000,1114.32000000,1107.81000000,1115.36000000,1130.84000000,1132.94000000,1122.16000000,1129.79000000,1137.61000000,1140.89000000,1144.32000000,1134.24000000,1144.21000000,1150.38000000,1141.04000000,1138.09000000,1144.74000000,1154.67000000,1163.14000000,1169.20000000,1169.49000000,1161.43000000,1154.13000000,1143.38000000,1131.09000000,1121.33000000,1094.81000000,1067.44000000,1038.27000000,1016.07000000,997.86000000,1007.51000000,1019.77000000,1028.80000000,1031.31000000,1031.91000000,1030.76000000,1023.55000000,1014.54000000,1009.63000000,1006.10000000,995.28000000,985.98000000,976.66000000,959.45000000,943.27000000
